# .PCD v0.7 - Point Cloud Data file format
VERSION 0.7
FIELDS x y z intensity
SIZE 4 4 4 4
TYPE F F F F
COUNT 1 1 1 1
WIDTH 1275
HEIGHT 1
VIEWPOINT 0 0 0 1 0 0 0
POINTS 1275
DATA ascii
29.418077 0.17607617 1.0703603 15.904762
30.248829 0.32976139 1.4023378 29.928572
34.202087 3.8337846 1.6867735 22
34.515556 4.4073644 1.8001385 31
20.565802 -4.8977962 0.44704685 14.227273
27.990807 0.31543529 0.91305882 0.85714287
28.684988 0.70638204 1.058176 5.3913045
29.393412 1.9628744 1.4662733 0
30.746796 2.9351897 1.0407393 50
33.768784 4.281251 1.5014329 23.666666
34.252045 4.6478257 1.785975 20.333334
27.8442 1.0602708 0.78898221 1
28.032217 1.5466306 1.0147408 29.588236
28.693117 2.2984309 1.0997334 2.5
30.678642 3.1591883 1.0718397 28.416666
31.70322 4.237978 1.2086824 39.684212
31.708921 4.5290613 1.2869558 32.666668
33.061024 4.9105144 1.6358569 27.222221
33.620533 5.2061858 1.7525337 29
30.97599 4.9478259 1.3491589 36.159092
31.368935 5.3479528 1.6671798 23
19.911421 -1.4838063 0.6789934 26.379311
19.937819 -1.316449 0.71407926 39.556393
30.468416 5.5493417 1.48086 61.305557
31.084486 6.1785517 1.4041467 18.714285
31.701529 6.9916201 1.4847009 16.157894
32.568829 7.444881 1.5392787 25.066668
32.946877 8.1077681 1.3898025 26.5
33.738827 8.6399994 1.46137 9
19.732946 -1.1999584 0.61171913 26.419355
19.786242 -1.1633626 0.84574902 47.154762
30.51112 7.1963434 1.7632198 4.5
31.889425 7.5380096 1.7214448 15.5
32.12616 8.3969364 1.7412736 15.125
32.86179 8.6626463 1.8169947 15.133333
30.537643 8.6878881 1.2701309 25.071428
31.521572 8.9751682 1.6305001 25.799999
29.872017 8.6619654 1.2293934 36.333332
29.906639 9.1836052 1.2556874 36.36842
31.246548 9.8294115 1.8156028 15.272727
31.204216 10.439526 1.8548424 21.5
18.272476 2.4096885 0.71155804 1.5
18.699837 2.5123878 0.71445048 2.7890625
20.683161 4.2225599 0.83655941 9
21.377462 4.5530982 0.68085027 14.62963
21.65691 4.9361653 0.66126138 15.090909
29.926233 9.9506826 1.2927537 36
31.145668 11.317074 1.9130905 19.333334
16.736328 2.4721024 0.68066794 1.1538461
17.653427 2.4525595 0.72631562 1.15625
18.39554 3.1760497 1.2599998 5.0749998
18.949265 3.2915335 1.2436314 11
19.788916 4.3443623 1.3469706 18.65
21.062838 4.8700881 0.94328737 26.375
21.728134 5.2452493 0.76283103 10.735294
21.939939 6.2101731 0.67184007 9
23.126284 7.0069156 0.83929992 50.833332
29.816826 11.173167 1.3446193 35
30.601175 12.214579 1.9356191 24
31.091461 12.639028 2.0062981 12.727273
15.361031 2.3627074 0.44215304 1.2820513
16.094 2.4550896 0.57557595 1.5625
19.224588 4.629508 1.3562768 10
22.000084 6.9527931 0.71328223 11
29.862297 12.674453 1.5185213 31.6
31.174236 13.278144 2.0609884 9.5
31.191788 14.243845 2.1360672 11.333333
14.729585 2.7441633 1.001714 2
19.796528 6.9411187 1.4169464 13.782609
20.161858 7.2793274 1.3944647 14.12
22.089985 8.5258245 1.2118609 22.492308
22.568111 9.1298828 1.2650836 24.044445
31.146198 14.865593 2.1806526 11.090909
31.195429 15.547481 1.935328 12.75
20.963808 8.7216673 1.5453026 25.826086
21.49505 8.7616682 1.5554416 26.9375
22.391359 9.3040609 1.5209925 30.25
23.059816 10.257114 1.3916742 20.785715
31.249876 16.305431 1.9717968 15
31.297787 16.957994 1.7102466 14
31.278858 17.498938 1.9703286 12.714286
30.160065 18.38171 1.7190349 28
30.763851 18.384777 1.7519152 19.384615
31.325878 18.585476 1.7925315 13
29.979465 18.577805 1.7191558 22
29.977816 19.019829 1.7413156 32
25.291925 -6.3883057 0.042271703 3
31.511795 -1.3788207 0.52005279 9
25.278215 -5.2945275 0.10913065 6.3333335
25.896837 -4.8354826 0.01192382 10.714286
31.001087 -1.0818279 0.20434579 3.75
23.017786 -6.1226683 -0.03054288 8
25.264887 -4.5552154 -0.096214265 6
25.357716 -4.2699747 0.021717638 9.25
22.579269 -4.7560525 0.036616594 7.3333335
22.914137 -4.6430988 0.057724833 16.583334
28.7904 0.47316897 0.54242319 5.5714288
22.70134 -4.1869183 0.077422529 5
28.444496 0.77438951 0.4873322 6.9285712
28.127876 1.4401762 0.37305811 2
30.794823 3.0671644 0.57441211 27.035715
28.18062 2.080173 0.49281517 1.8181819
28.621029 2.5222986 0.63337487 3
29.547152 3.8826523 0.62875724 18.666666
31.319252 4.8990736 0.80089998 47.588234
31.474382 5.1912355 0.81651115 40
30.005684 5.2351789 0.77939212 49.125
30.436558 5.0271673 0.78281045 50.833332
20.727974 -0.97368121 0.17081097 1.125
29.80176 5.5431767 0.785604 44.625
29.809668 6.2125955 0.76983917 43.827587
28.987602 6.3255854 0.79173768 17
29.777599 7.1340251 0.73806804 40.083332
29.805641 7.7280259 0.6940825 30.941177
29.855076 8.4223957 0.88898182 36.099998
29.949135 9.163784 0.91650534 13.25
29.977987 9.8532124 0.93994147 10.25
30.067104 10.364391 0.95917881 9.4444447
18.971531 2.638629 0.2126205 2.3333333
19.435339 2.8289802 0.28365096 2.3888888
21.710861 5.0876522 0.45327279 15.083333
22.576763 5.1962404 0.32458106 8.5
28.894073 9.9806576 0.91026616 36
30.076067 11.152171 0.98463655 25
30.032701 11.918515 1.0073388 22.333334
21.844168 5.5298004 0.49617592 13.470589
21.929209 6.1945977 0.50800681 11.111111
23.185217 7.1054673 0.54553556 11.222222
30.051231 12.391798 1.0226382 47.857143
15.961153 2.4219332 0.082052648 2
21.994446 6.9564385 0.5714221 15
22.04517 7.910378 0.6000672 9.75
22.733738 8.2760124 0.42027789 1
31.305336 16.119827 1.1780435 17.4
31.304325 16.774918 1.1977932 15
31.338499 17.659378 1.2254672 19.75
31.294575 18.124895 1.2378696 45
24.957586 -8.0755816 0.28845531 38.294117
25.562883 -7.4087038 0.33613375 27.75
24.295174 -7.6828556 0.26868045 5.3000002
25.273252 -6.3742752 0.62215412 5.5
25.387415 -5.1978974 0.67948067 4
26.224461 -5.0812016 0.43631226 74
25.391041 -4.1272888 0.57809389 3.3
29.734116 0.0022721291 1.196982 4.8214288
34.417168 3.5074925 1.6686116 27
22.643871 -4.9943304 0.52025467 7.4615383
22.980133 -4.6506853 0.34659302 73.777779
27.869595 -0.55063224 1.0958561 0
28.769943 -0.030604601 1.0212828 5.8125
29.403564 0.23581743 1.0924814 13.15
33.403687 3.8457081 1.1999372 7
34.139793 4.3139076 1.5988661 24.958334
34.687305 4.3504877 1.739293 36
22.689503 -4.1784782 0.29398245 113.85714
27.970583 0.95290089 1.0381989 12.097561
29.166149 1.3764176 1.5458868 1
29.380739 1.5042527 1.5860759 1
30.7649 3.0469575 1.0957822 24
31.792713 4.062717 1.1139535 46.357143
32.90889 4.6466999 1.7632219 20.727272
33.351967 5.0130024 1.8614823 15.538462
27.935593 1.4449441 0.91432345 8.6315794
28.171154 1.8561862 1.0963418 68.483871
28.69891 2.4412882 1.0981792 13.75
29.572456 3.7947197 0.96805608 121
31.208254 4.8038774 1.3825001 30.535715
31.746792 5.4793844 1.3198744 25.799999
34.061226 6.5780411 1.3754796 12.5
29.507908 3.8836267 0.96861041 82
30.652462 5.4241514 1.4768926 47.666668
31.230938 6.0906496 1.3514265 18.75
32.263844 7.0250731 1.8904303 17.526316
32.808937 7.2681999 1.7460784 25
33.848015 8.3279896 1.9139315 11
20.785223 -0.97009587 0.77952135 34.771084
30.18915 5.8760748 1.1113478 1
30.861008 6.8343878 1.3897625 14.555555
31.788057 7.2519302 1.6412755 11.894737
32.492962 7.9305553 1.6829714 25.90909
33.018604 8.5795517 1.7696816 17.4
20.613934 -0.74274468 0.92196113 36.625
28.970427 6.309916 1.0641725 104.66666
30.778187 8.6336813 1.2959166 34
31.531616 8.9122562 1.7684954 29.966103
29.847874 8.5968246 1.2416292 35
30.090479 8.8090611 1.2673111 23.736841
31.20122 9.5518465 1.8266429 20.440001
31.179583 10.282678 1.835485 16
29.820671 9.835186 1.3112152 37.736843
29.764357 10.445552 1.3435969 31
31.118071 10.982944 1.8883415 12.571428
18.225645 2.388519 0.66339076 0
18.882139 2.589299 0.68282783 1.7785234
19.465225 2.9398682 0.80046213 3.2611465
21.656437 5.0480909 0.73156905 13.896552
28.836012 9.9426765 1.264047 24
28.922829 9.8798962 1.2650281 138
29.771717 11.042652 1.3790048 31.818182
31.017521 11.787549 1.9479187 13
31.058033 12.485514 2.0106571 11.727273
16.762899 2.4820845 0.73323202 0.5
17.110554 2.3775411 0.52463913 2
18.358187 3.0513694 1.2400271 2.9333334
18.979015 3.2601538 1.2826126 5.75
19.856043 4.3814936 1.3985287 26.222221
20.983677 4.9000015 1.0103903 23.177778
21.815357 5.4990258 0.73358393 11.433333
21.900648 6.2464805 0.75872421 12.590909
23.121244 7.0400472 0.83884835 48.777779
29.963879 12.520943 1.7040079 32.666668
30.993898 12.899199 2.0414541 9
31.22538 13.653244 2.1244795 9.333333
16.039577 2.4315288 0.70458615 0.75
19.53779 5.4480772 1.3670568 29
21.919914 7.0910168 0.85027492 13.363636
22.130493 8.0069199 1.0065126 11
22.545231 8.3837414 0.85821706 21.375
29.780598 13.204352 1.507645 24
31.126205 14.630412 2.2030585 10.3
31.126904 15.325068 2.1514297 9.3999996
19.346321 6.7415733 1.3579817 16.428572
20.053238 7.2615256 1.4143926 14.448979
20.480467 7.8498864 1.5562315 10.222222
21.725113 8.6214743 1.3158835 22.923077
22.373371 9.1323318 1.3976294 24.3375
22.699884 9.7180195 1.65407 21.142857
31.215744 15.988474 1.9800694 14.1
31.257954 16.691093 1.9428639 12.5
18.599016 6.6381092 1.4579754 7
18.705341 6.8175807 1.4827055 9.7142859
19.377928 7.5344734 1.3540003 6
20.524683 8.5411434 1.5101061 14
21.024702 8.8552246 1.4671235 19.25
31.275909 17.475651 1.9217235 12.625
31.282574 18.153694 2.0990491 11.333333
19.783772 9.5341988 1.6676677 8
21.585604 10.496513 1.5525743 6
30.511169 18.370768 1.8571737 27
31.246883 18.558794 2.2732308 17.222221
29.921505 18.910955 1.8605253 31.285715
30.536346 19.18788 2.5770404 22
29.990776 20.320614 1.9502887 20
25.277082 -5.2325926 0.054719269 5
26.17263 -5.0949707 0.097718626 41.5
33.004246 2.6097114 0.43027872 22.75
25.298458 -4.0462408 0.13876367 16.933332
32.469978 2.8433964 0.60141826 26.307692
28.571648 0.7344172 0.32876539 8.6000004
28.957201 1.5250961 0.19838911 4.5714288
30.732426 2.9253993 0.66612619 35.045456
31.646658 3.6307621 0.75094181 35.904762
28.016972 1.57048 0.52038002 1.4
28.744083 2.0109911 0.26709682 2.9142857
29.476421 2.4725716 0.23632944 5.7647057
31.229595 4.5293694 0.69454914 34.40625
31.194231 4.8397555 0.84305 46.666668
29.459591 3.7259738 0.59504437 62.666668
30.10964 5.1105757 0.75529253 30.068966
29.800791 5.7737164 0.85096592 35.517242
29.790556 6.4013462 0.87924248 38.75
21.70566 -0.32227492 0.20928088 1.25
28.92149 6.2067566 0.77619523 54.099998
29.721905 7.2162457 0.91326094 42.130436
30.084692 8.1813364 0.96507025 22.181818
30.369785 8.3413639 0.98010343 16
29.900455 8.4918213 0.97282475 27.272728
29.97607 9.2967968 1.0084736 20.157894
30.448009 9.5987091 1.0350919 2
29.538239 9.9254608 0.98837656 25
29.936523 10.662585 0.97799778 20.352942
30.264734 11.168697 1.0931985 14
29.854984 11.330235 1.0866735 23.799999
30.044353 12.291403 1.1305082 33.916668
19.538809 2.9361486 0.30354911 1.2051282
19.961832 3.2503579 0.3616634 1.25
21.793985 5.4288702 0.52428901 18.200001
22.338261 5.7443938 0.4299615 11.111111
22.620687 6.205039 0.36482358 8.6000004
29.784481 12.714993 1.1385334 26.666666
21.910154 6.2507401 0.54241484 12.097561
21.972355 6.9128914 0.5838213 11.6875
23.1555 7.3337116 0.49360523 8.8095236
31.311165 16.191196 1.3231995 13
22.00391 7.6326504 0.65776175 15
22.483334 8.1711712 0.69466603 32.510639
22.930944 9.1429243 0.56469095 8.833333
31.331783 17.004467 1.3549917 14
31.355598 17.71143 1.3826752 16.200001
23.036041 10.634833 0.64105773 15.5
30.853344 18.582111 1.3982215 21
31.377764 18.591303 1.4167836 16
30.585018 23.247023 1.5620492 19
25.34255 -5.1807995 0.60667598 1.55
26.102316 -5.0612135 0.53220505 37
33.337818 2.5236213 1.1345108 21.5
33.38224 2.6888697 1.1459699 35.142857
34.14817 3.6102684 1.6645248 25.733334
34.813377 4.2699599 1.73175 13.5
25.241512 -5.149353 0.91530675 1
25.43231 -4.0802994 0.60167456 10.086957
29.589191 0.020362616 0.84668851 4
33.925968 4.2704167 1.7446568 20.535715
34.145939 4.7286572 1.8305874 11.333333
28.440964 -0.032894611 1.184113 0.25
28.850714 0.45788479 0.76212436 8.6000004
29.32366 1.7668104 1.5160182 1
30.725677 2.9252114 1.1067994 16.466667
31.742073 3.9007421 1.1134436 37.545456
32.659389 4.4062538 1.682791 19.083334
33.024921 4.7330437 1.8369806 22.923077
34.135021 6.2825184 1.392851 12
27.996164 1.6299933 0.99366313 15.423077
28.556284 2.168072 1.1193712 38.878788
31.000406 4.668787 1.27672 36.184212
31.233879 4.7968597 1.4933095 27.533333
32.706402 5.8576837 1.2832026 17
32.743851 6.7619572 1.6257036 14
32.990196 7.118063 1.7543964 31
29.46007 3.7234087 0.9667213 142
30.492022 5.2303529 1.4683235 57
30.616396 5.4701891 1.5338364 38.72131
31.343346 6.4171915 1.3596601 8.8000002
32.203819 7.0510731 1.7742805 20.586206
32.643127 7.8689842 1.6763101 25.818182
33.339909 8.4981909 1.7102804 19.444445
34.358803 8.558795 1.987834 6
30.459229 7.0834579 1.6255629 5.6666665
31.842674 7.4414721 1.6760712 5
32.249557 8.5527077 1.9353797 20.836735
21.817314 -0.35647774 0.82288635 35.133972
28.925539 6.1633644 1.0799775 219
30.544308 8.5187168 1.3214886 31
31.330761 8.9989586 1.8984699 25.868853
21.604326 -0.20337772 0.92404902 38.935482
29.899704 8.5852003 1.2895908 31.25
29.855616 9.2314653 1.329302 30.6875
31.210716 9.8596754 2.0159678 14.454545
31.166157 10.474666 2.0366721 17.407408
29.66363 9.8905621 1.3622935 37.5
29.792324 10.421352 1.4045 32
31.117645 11.377409 1.9543881 20.733334
31.038593 12.016636 2.0076151 14.25
29.800825 11.281384 1.4625003 34.400002
29.982765 12.129137 1.7007475 33.590908
31.099752 12.672937 2.0740576 12
31.238855 13.293921 2.1434538 8.333333
18.904179 2.5697322 0.67898518 0.625
19.465004 2.9398239 0.75121534 1.5449102
20.04644 3.4626458 0.91826987 3.9182389
20.51458 4.2295618 1.0147055 4.8800001
21.628201 5.3392897 0.84781635 14.05
21.762478 5.4974637 0.79989409 10.5
29.749048 12.733779 1.557966 33.375
29.804007 13.011595 1.5797317 25
31.189342 14.200437 2.2267911 10
31.145487 14.76107 2.2780249 9.636364
18.503582 2.6777961 0.97560227 1.0869565
18.74287 2.9719961 1.1513369 3.2857144
19.834818 4.3724504 1.4452353 9.3000002
20.344185 4.52987 1.0782177 7.7173915
21.103416 4.9874921 0.99731863 21.117647
21.866552 6.2436237 0.80062276 13.882353
21.982096 6.9569263 0.84428632 14.904762
23.116508 7.0370836 0.9013629 122.57143
31.153469 15.47016 2.2410192 11.4
31.272888 16.295811 2.1427474 13.294118
18.108223 3.353096 1.3377414 5
18.175377 3.440053 1.3347204 4
18.992764 5.2677927 1.3530571 4.5
19.364428 5.2078347 1.3311067 13.153846
21.928665 7.5077181 0.91344208 12.578947
22.198187 8.3505344 1.0402265 19.285715
22.5354 9.2457113 1.2534256 29.615385
31.2903 16.949938 2.2137365 12
31.301693 17.62525 2.2719204 11.555555
18.666788 5.4619164 1.3215896 3.5
18.771982 6.6046524 1.3753152 13.448276
19.59885 6.9406986 1.4174347 15.404255
20.209515 7.4920893 1.4669974 16.424999
20.929546 8.7522573 1.4814329 22.8125
21.732031 8.8408232 1.4570403 19.878504
22.593773 9.4568987 1.429899 23.84
22.989708 10.337373 1.5947011 18.371429
23.195375 11.212136 1.1360873 23.5
30.714821 18.594965 2.1650355 27.5
31.321535 19.059219 2.3947899 15.125
18.334129 6.6993103 1.4580771 11.36
18.768831 6.9192305 1.5341065 10
20.459831 8.8996582 1.4602339 15.428572
21.183586 9.3847036 1.662787 20
22.836912 11.856629 1.3253658 6.5
30.157059 19.17384 2.0221486 7.5
30.524143 19.284035 2.3669088 37.416668
31.346745 19.849901 2.1283159 10
31.350372 22.446344 2.3085632 6
19.592205 11.947713 1.7426598 2.5
33.062222 2.3407259 0.58250296 14
28.766895 0.13970065 0.50701195 28.75
28.809645 0.27682638 0.51729733 28.5
30.748665 2.8303144 0.67242295 26.333334
31.654484 3.7259297 0.79524374 34.379311
27.940296 0.84197235 0.35798085 1
28.386496 1.2450895 0.25218835 5.4523811
28.789921 1.6306096 0.24529797 3.1818182
29.559025 2.2992525 0.2496981 5
30.62199 3.1654336 0.70587546 18.642857
31.168522 4.5989904 0.69117773 30.074074
31.280712 4.7892013 0.84626782 47.625
27.743694 0.7106266 0.42109519 1
28.110386 1.5306332 0.38980669 2.875
28.218981 1.9974813 0.42143118 2.6111112
29.484554 3.7728541 0.65023822 40.875
30.109461 5.1185694 0.77600288 31.146341
29.711571 5.5094228 0.69354439 35
29.755276 6.0297022 0.81346905 41.125
29.858173 6.9803801 0.92643797 34.384617
28.930347 6.2546701 0.78774977 28.1
29.707664 7.3992801 0.94291174 43.285713
30.014284 8.5043793 0.99274671 27.793104
30.120483 9.2468224 0.98107827 19.200001
29.974445 9.7154922 1.0046233 24.142857
30.109493 10.886024 1.1125929 24.09091
22.531538 0.45113349 0.32395336 1
28.923437 9.9755268 0.9436813 28
29.805058 11.16814 1.0077207 27
30.02697 12.391121 1.1755564 54.733334
29.823261 12.730066 1.1840087 33.75
29.786922 12.992308 1.1940634 25.6
31.341072 16.174452 1.3759604 12.666667
31.346048 17.178791 1.4183222 14.555555
31.369522 18.126225 1.4586496 14.2
20.118284 3.3681722 0.38529342 1.2173913
20.685574 3.8149257 0.35114977 3.4000001
21.905777 6.0440063 0.58419794 13.538462
22.280399 6.3990493 0.51850337 12.928572
23.066408 7.1074381 0.55764771 11.518518
31.180037 18.754082 1.4787233 17
19.777357 3.1151583 0.33279756 1
21.962082 6.6829758 0.60275114 13.942029
22.125177 7.8327284 0.67613268 20.196722
22.705059 8.3240929 0.63607764 23.529411
22.991985 9.4501133 0.72573423 9.5714283
22.945908 10.201294 0.84195769 17
23.013411 11.003445 0.73756647 19.368422
23.178486 11.494022 0.68767673 11.111111
34.675777 3.1808827 1.7356671 14
34.921249 3.8180506 1.9148827 7
34.222485 3.5109043 1.7248931 25.235294
34.332146 4.0771875 1.8441577 21.107143
32.360622 3.4493821 1.09559 25.666666
32.849014 4.4286613 1.7418997 19.375
33.531071 4.4923167 1.7022225 21.1
28.66926 -0.12201667 0.98827517 11.909091
29.095516 0.19331837 0.97976375 10.25
30.628963 2.880856 1.1963024 10.73913
31.637463 4.1011472 1.0917654 38.157894
32.826241 4.5508947 1.666523 37
32.997139 5.5612392 1.2563633 38.333332
33.570602 7.0320816 1.5038866 13.666667
28.544346 0.20474362 1.1755028 22.113207
28.802639 0.70641446 1.4006259 6.9056602
29.242672 1.1780834 1.6436579 0
30.592873 3.1139758 1.2088954 8.9705887
31.025114 4.6651888 1.2845823 46.862068
31.144033 4.9105258 1.4779657 29.628571
31.76342 5.6052132 1.189018 27.666666
32.359352 6.8339357 1.799376 17.959999
32.875141 7.4388914 1.6292812 31.200001
33.732841 8.4855118 1.8421495 14.538462
27.938749 1.5508726 0.96815681 27.452631
28.401653 2.1339598 1.1194746 56.6875
29.472672 3.7483826 0.94751281 32
30.512714 5.4728756 1.4539114 48.867924
31.079624 6.3018146 1.3708348 18.47826
31.827545 7.2017012 1.729358 16.809525
32.311279 8.2956066 1.9372535 17.454546
32.67947 8.5676861 1.9197571 17.799999
30.486385 7.1268215 1.7052925 6.6666665
31.436184 8.8793344 1.8103716 26.850746
28.928066 6.231802 1.0693945 30.166666
30.060017 8.6740932 1.29423 26.5
30.63311 9.0120697 1.4905971 17.571428
31.222525 10.003945 1.964056 22.338984
31.167156 10.828947 2.0608125 12.4
22.811062 0.29920816 0.98873305 32.222221
29.837814 9.0774307 1.3100498 48
29.858021 9.7531624 1.3580208 37.07143
29.799425 10.533319 1.4095949 32.285713
31.135963 11.466057 2.0980141 13.857142
31.097889 12.22333 2.1336181 11.176471
22.567261 0.46228671 0.93526906 40.124062
28.935753 9.9046774 1.321157 213
29.800209 11.367046 1.4686236 34.166668
30.045135 12.248268 1.8596091 31.705883
31.072266 12.858839 2.0538566 14.833333
31.254234 13.812756 2.1617236 8.75
31.190252 14.45698 2.2217236 9.6000004
29.75297 12.626793 1.5562804 44.666668
29.781986 13.011156 1.5853484 28.6
31.157684 15.000666 2.2745068 9.1111107
31.255297 16.019833 2.1288514 13.833333
31.308887 16.585758 1.9179003 15
31.303179 17.131006 2.2462404 10.823529
31.32461 18.092848 2.2830658 10.888889
20.108698 3.4324498 0.72939664 0.81818181
20.52788 3.8775961 0.95235324 4.2594595
21.154568 5.0813231 1.070649 32
21.840923 5.9782438 0.85082793 10.774194
21.916653 6.1610689 0.78657788 10.058824
23.11385 7.075633 0.95846343 28.299999
31.044655 18.755079 2.3606224 23.357143
31.306044 19.635727 2.4806604 10.272727
31.356283 20.236036 2.8299878 13
19.142076 2.7326407 0.84858513 0.89999998
19.743811 3.2313592 0.9272458 2.0490196
20.233727 4.3983688 1.1489952 4.060606
20.657816 4.7921224 1.0050793 7.0833335
21.756643 6.0771933 0.95430094 10.571428
21.891953 6.6617012 0.86822379 13.590476
21.988707 7.7550588 1.0572343 8.4901962
22.469538 8.4616413 0.92743641 21.575001
30.470572 19.308519 2.3774371 36.299999
31.352718 20.383841 2.8453286 13
31.30368 21.765947 2.2955651 7
18.642544 3.4574578 1.396961 5
19.33493 4.9216881 1.3046288 4.7857141
19.493443 5.4811311 1.3678958 10.909091
21.624887 8.5286217 1.2911154 16.912281
22.032883 8.9463367 1.4601064 20.021858
22.703972 9.6617918 1.5109763 20.90196
23.053804 10.575176 1.449187 23.509434
23.194178 11.379736 1.4475447 17.833334
31.331062 22.198631 2.3286033 2
18.565289 4.9574308 1.3364252 1
18.857862 6.6363907 1.5080254 16
19.647598 6.9879322 1.4133706 16.903225
20.248817 7.6208787 1.4668834 15.881579
20.72357 8.7868071 1.5477754 14.264151
21.173286 9.28825 1.6977676 6.1999998
22.926525 11.950388 1.2040424 8.333333
30.446285 23.080099 2.3529439 9
17.440105 6.5543685 1.3897624 7
18.463745 6.7525911 1.5354774 13.444445
19.247511 7.6720462 1.4154727 22.5
20.031284 9.0912418 1.4881968 10.235294
20.479044 11.032196 1.3346593 5
17.158092 6.5722198 1.4119787 4.6666665
20.372066 11.680891 1.7105169 8
18.88188 11.895851 1.7391853 5.5
18.349062 11.907427 1.7440491 10
31.019093 2.7875876 0.46997911 6
28.797306 -0.28790092 0.48551184 2
29.676401 1.8475423 0.20470884 3.8461537
30.766485 2.8945432 0.6763925 20
30.648247 3.1962421 0.73101437 31.444445
31.276558 4.7385726 0.72341043 26.783783
31.284241 4.9677258 0.83435208 38
28.149038 0.42435932 0.43029344 18
28.532829 1.256954 0.22744131 5.4222221
29.438238 2.032588 0.23047343 2.6666667
29.548933 3.8820508 0.36380064 5
30.057865 5.1761532 0.76340711 26.558823
28.053768 1.6229577 0.41764948 2.3333333
28.355921 2.230674 0.47814447 21.142857
29.775671 5.4587951 0.63819194 23.526316
29.765587 6.045558 0.68436015 31.674158
29.795662 7.1626339 0.88538086 44.380951
30.131947 8.2097931 0.95179689 31
28.962795 6.3090806 0.72653019 14.666667
29.669207 7.6408653 0.81972414 48.777779
29.851913 8.4744539 0.95550764 36.611111
30.004618 9.3015556 0.99144524 20.647058
30.129917 10.217194 1.0292506 21.565218
30.243027 11.231724 1.0696963 36.714287
30.454376 12.108923 1.1072097 38
28.94688 10.031357 0.93979716 35.200001
30.057861 11.511728 1.0747652 25
30.024632 12.443518 1.106967 56.925926
31.327467 16.298832 1.2792573 15.333333
31.327744 16.898212 1.2998427 15
31.350624 17.452293 1.3194504 15.5
31.430458 18.062283 1.3426273 32
30.178999 18.554249 1.3199574 24.666666
21.07358 4.2087917 0.3900038 1.625
22.039104 6.9248686 0.57498884 13.865853
22.581587 8.0744667 0.61089057 25.015385
22.884466 8.9052076 0.62416631 17.783783
22.962883 9.4753551 0.6951825 13.166667
19.712576 3.0260515 0.32991147 1
22.022535 7.3919601 0.61922807 14.148149
22.09264 8.009902 0.68075818 21.170732
22.902811 10.145283 0.78801405 21.25
23.029913 10.990459 0.7244997 19.23077
22.663916 11.796224 0.83108777 16
34.412891 3.4160151 1.5465724 25.5
33.873734 4.4044905 1.8860526 1
32.665043 3.1222711 1.0724595 14.285714
33.07449 4.5161705 1.7900598 10.25
34.607006 8.7035103 2.2630696 4
33.031769 5.5343943 1.211129 11
32.969597 7.1490335 1.6609263 23.476191
33.087254 7.7644434 1.6668105 16.75
33.856083 8.5775728 1.7902163 15.333333
29.126856 -0.10468435 0.89184427 3.75
30.694801 2.8958182 1.1637281 8.0666666
30.631041 3.1867361 1.1934984 6.108108
31.065199 4.7974548 1.2960215 25.23077
31.236712 5.1741562 1.6568933 23.586206
31.792955 6.3925858 1.6485822 26.166666
32.170849 7.1509867 1.8231103 18.84375
32.700287 8.4524622 1.7647254 17.025
32.985428 8.6321383 1.825664 19.5625
28.129707 0.42235661 1.10147 24.050421
28.22905 0.8349812 0.79628396 1.3333334
28.781458 2.4602962 1.129472 23.200001
29.496067 3.8093557 0.92631185 28.200001
30.722496 5.109951 1.2535586 31.166666
30.524614 5.6134677 1.405593 37.832115
31.02202 6.4855289 1.3073173 19.851852
31.22543 7.3409829 1.2067335 17.799999
31.720535 8.8193817 1.6885344 21.087719
27.954052 1.5556622 0.91404784 11.807693
28.29871 2.1051826 1.0038106 3.1875
30.033421 5.8240709 1.057606 18.75
30.44116 7.1366978 1.3500725 5.818182
30.828629 8.8396721 1.4725947 25.166666
31.246593 9.7769327 1.8903823 16.282051
31.193951 10.779365 1.9039433 23.68
28.938522 6.2838321 1.1232089 66.714287
29.955395 8.6526318 1.3129339 28.5
29.899042 9.1495552 1.2795962 23.102564
29.875057 10.240278 1.3189034 23.727272
30.868597 11.244224 1.7625611 22.75
31.096573 11.88192 2.0041277 18.204546
31.106743 12.844611 2.111279 12.92
28.95159 9.9719057 1.2417722 33.285713
29.762032 10.563126 1.3197384 37
29.843214 11.544791 1.3853278 31.125
30.021847 12.474789 1.7349298 43.731709
29.789978 13.157617 1.4851451 35.5
31.21151 14.401749 2.0604396 10.5
31.180414 15.149458 2.0969319 9.9333334
31.263874 16.212154 1.992631 15.111111
31.284426 16.856903 1.9949242 12.2
29.749132 13.193717 1.4854763 33
31.292166 17.397278 2.1081924 11.538462
31.217657 18.405109 2.1339102 15.56
31.298122 19.453114 2.5457594 12.5
23.237589 1.3755822 0.98815584 35.333332
23.380789 1.635339 0.96430236 21.285715
30.303688 18.59021 1.8617198 32
30.696203 19.446213 2.5084419 23.444445
31.281965 20.179119 2.6152928 6.3333335
31.348021 21.909994 2.7884181 12
31.345921 22.078625 2.8048394 12
29.915836 19.148823 1.880566 25.333334
30.011742 20.17734 1.9525026 22.6
30.028214 21.002865 2.0075798 16.75
30.042255 21.794577 2.0603864 21
30.094444 22.454266 2.1062331 17
30.12569 23.08033 2.148952 13.5
21.025793 4.1623425 0.7036854 2.4411764
21.15893 5.0348978 1.0434027 19.5
21.772249 6.4040694 0.94534588 12.476191
21.971777 6.8736753 0.82102638 15.38
22.510801 8.3267088 0.85519987 29.285715
22.793173 8.7247047 0.89058864 17.6
19.482447 2.9465847 0.84279728 0.94736844
20.343018 3.707274 0.95177239 1.6981132
20.360128 4.2994037 1.0954722 4.5329671
21.433292 6.212862 1.0303863 7.4000001
21.840693 7.3220835 0.93972516 10.826087
22.042576 8.2058678 0.99868983 16.343283
22.187202 9.0618219 1.4433572 21.502222
22.822081 9.8468494 1.3851759 18.581081
23.093319 10.740733 1.4219079 21.457144
23.193172 11.67779 1.4527128 14.466666
18.76762 2.6655374 1.0668104 1.5
19.368185 4.9362545 1.3168762 4.6031747
19.464666 5.473587 1.4137502 10.230769
19.915516 7.1169028 1.5087266 20.5
20.273415 7.6161418 1.4680533 16.538462
20.97089 8.7356262 1.4718523 16.833334
21.303337 9.0049601 1.4673519 14.5625
21.745674 11.597198 1.3064973 6
22.474308 11.8919 1.3539214 70
18.137068 3.1067817 1.3339363 0
18.692333 4.8985858 1.3331201 2.1666667
18.638515 6.4805536 1.4689915 13
19.442413 6.9030347 1.4149109 16.419355
19.857887 7.9371223 1.400866 8.666667
20.145275 9.0154114 1.4503926 11.066667
18.346722 6.6047535 1.512895 12.888889
18.486832 6.8639174 1.5251502 14
20.368498 11.39918 1.8171498 13.5
22.499416 18.681858 1.7702912 51.090908
18.394264 11.519609 1.5742689 6
18.436245 12.441886 1.6834249 6.6666665
22.553959 25.975897 2.0322111 82.833336
32.182236 3.1246822 0.80940282 20.200001
31.678215 3.1620328 0.70984101 13.555555
31.714176 3.7575057 0.77629799 20.611111
30.770636 3.0800381 0.65516514 10.129032
31.298697 8.8909264 1.1282816 31.4
29.231907 2.2637305 0.30992806 2.9629629
29.913925 3.7019324 0.42310879 8.666667
29.536436 3.8495121 0.54398322 62.666668
29.866339 5.6034665 0.68503308 22.217392
29.853308 6.2190447 0.75875926 21.625
29.865093 7.2166824 0.85060596 25.544445
30.030706 8.459445 0.98943478 26.047619
30.144394 9.2280912 1.0547668 17.586206
30.36301 10.054246 0.97716337 19.642857
30.469091 11.059584 0.96606392 27.428572
30.446743 12.404284 1.2756152 71
31.370325 14.467323 1.4115787 6
31.319668 15.424476 1.4550053 10.8
31.334349 16.073963 1.486187 13.666667
31.316982 17.171131 1.5367494 12.142858
31.333008 18.047644 1.5781008 13.5
28.011414 0.29852343 0.45358339 19.166666
28.173346 1.7135272 0.37542245 1.3888888
28.523083 2.1456211 0.274829 4.3684211
28.972404 6.3243909 0.72783697 55.666668
29.73455 7.7110376 0.60569513 20.875
29.788214 8.5537663 0.74940717 25.368422
29.910009 9.2503014 0.98297638 18.25
29.919914 10.334436 1.0282512 27.170732
30.050449 11.497861 1.0770856 25.407408
30.028343 12.265211 1.1372004 46.645161
29.89304 13.066196 1.2852437 26.25
31.348915 18.5411 1.6015885 11
31.363012 18.734123 1.6110921 16
28.949747 10.041651 0.81144243 37.400002
30.181684 19.256512 1.5837075 67
22.862495 8.576849 0.59480488 20.962025
22.938831 9.2561827 0.68854928 16.714285
23.075676 10.258034 0.50446302 8
21.39846 4.5824838 0.40528679 1.3
22.044338 7.6663132 0.6080907 15.871795
22.437574 8.2342196 0.62058574 20.805826
22.877539 9.3324127 0.62104166 17.833334
22.933468 10.22921 0.67143118 16.970589
22.995512 11.099009 0.8355388 21.958334
23.058067 12.24069 0.87920308 12.2
22.930647 13.163088 0.96426773 11
22.654385 18.871117 1.2020108 13
33.467743 2.8837047 1.1702549 17.066668
34.057213 3.6451406 1.7445542 12.8
33.835262 6.6334653 1.4869 16.4
34.041466 8.0618858 1.8797327 6
34.33493 8.5569515 1.9750715 9.5
32.398361 3.5029795 1.1328576 1
32.646355 6.0982552 1.3053894 10.333333
33.002022 6.8968482 1.5904464 18.384615
32.85181 7.5611706 1.5923183 18.785715
33.122986 8.5164356 1.8182646 18.931034
31.020662 2.7292628 1.2510266 3.6666667
31.777714 4.0167332 1.1202004 23.454546
31.696033 5.9661026 1.4598072 8.666667
32.178196 6.9848862 1.8314701 14.671875
32.419052 7.6320238 1.6898856 18
32.364403 8.7006264 1.8259629 14.531915
30.676853 3.102556 1.1061835 6.5277777
30.466057 5.5535207 1.6561428 25.538462
30.933338 5.9977679 1.4923311 20.327587
31.580141 6.9623985 1.2875478 1
31.414001 9.0644464 1.924904 28.095238
31.246964 10.000414 1.955 29.319445
31.192419 10.709715 2.0390258 16.214285
29.314245 2.1642852 1.2827976 1
29.517437 3.7442837 0.95120752 1
29.513275 3.8173623 0.95500416 127
30.399752 5.6398773 1.3360177 55.333332
30.385427 5.7064357 1.5249089 47.533333
30.542454 7.2119679 1.589469 4.4285712
30.311468 8.612524 1.3127143 25.142857
30.129089 8.9610672 1.3250926 12.333333
30.086739 9.9598064 1.3935074 15
31.174305 11.190557 1.9945778 20.538462
31.109436 12.028307 2.1108022 17.066668
31.131334 12.886284 2.2126436 16.6
31.181219 14.289855 2.3909101 11.2
31.165041 15.149881 2.2003729 12.619047
31.246815 16.176025 2.1428642 16.333334
31.279543 17.108051 2.2410436 12
31.288122 17.93716 2.2761722 12.166667
27.969763 0.46326733 1.1343023 21.063829
28.059011 1.5947905 1.0207005 9.7254906
28.442713 2.2198942 1.0234087 3.7361112
28.969215 6.2872424 1.0656145 36.166668
29.851667 8.707696 1.28878 29
29.881588 9.3104591 1.333528 25.833334
29.836149 10.197218 1.3945763 24
29.853001 11.412983 1.4851993 30.473684
30.042839 12.430457 1.8301765 35.847828
29.780928 13.083402 1.606214 32
31.065344 18.477879 2.3164573 10.857142
31.020445 19.170296 2.405323 29.896551
31.300549 20.011143 2.5597754 13.416667
31.339893 22.160748 2.77911 8.6999998
31.375492 23.077393 2.7553811 7.7142859
31.400614 24.194592 2.5599737 11.6
28.942337 9.9585609 1.3197366 48.5
30.361908 19.405605 2.2340479 41
30.391312 23.163383 2.4219031 7
23.899828 2.4467714 1.1028605 26.5
23.709597 2.342447 0.79914623 14.518518
22.813835 8.6942883 0.87883341 25.666666
23.094711 10.456861 1.4841805 19.333334
23.209667 11.185282 1.4023438 18.097561
21.346073 4.5082021 0.67791051 2.8372092
21.522011 6.6941538 1.0033153 2.5
21.979044 7.5773945 0.88367569 16.35821
22.191666 8.4401169 1.0566847 16.811716
22.439722 9.3219643 1.3895586 21.642317
22.891422 10.123648 1.4259208 19.233334
23.015663 11.279682 1.4355276 13.272727
23.166332 12.051083 1.5173173 10.666667
22.832541 12.959312 1.2136121 6
20.465809 3.7822146 0.91225344 2.8405797
20.629486 4.3374891 0.95483196 3.9518073
21.155098 5.1006899 1.0241858 6.090909
21.341631 6.8322682 1.0296383 5.8888888
21.273151 8.7891369 1.4068725 18.233082
21.507238 9.1918793 1.4091225 10.125
21.509659 10.360227 1.5407588 10.5
22.243048 12.196785 1.618206 20.333334
22.468668 18.678658 1.8800271 49.214287
19.58831 2.9789948 0.80448818 0.9285714
19.889048 3.2999249 0.98796558 0.80000001
19.625778 4.6816916 1.2543275 5.8305087
19.391235 5.4321885 1.3296463 14.736842
19.762596 7.0082173 1.4161812 16.301588
20.278744 7.6535282 1.373419 17.701298
20.343641 8.7915058 1.4820518 14.769231
20.305895 9.4517412 1.6297873 8
22.518551 25.957882 2.2248383 77
18.94961 5.1741428 1.2795587 6.5999999
19.052891 5.5123987 1.3053641 13
19.188396 6.753757 1.3744358 13.32
19.379251 7.7701135 1.4472989 15
18.202682 6.5816951 1.4388137 11.375
18.153952 9.925395 1.5879794 13
31.804239 3.6054738 0.70935732 23.333334
31.51886 4.1855307 0.7430768 25.9
31.343071 15.389013 1.38502 14.642858
31.327141 16.245768 1.4270629 15.727273
31.320471 17.245083 1.475969 12.7
31.322378 18.362343 1.5304301 13.75
30.88871 2.7971456 0.62950182 12
30.707321 3.168355 0.65181625 5.5
31.386267 4.5402861 0.7644884 28.5
30.624912 8.2095013 0.98284477 24.727272
30.655575 9.5262756 1.0299752 12.75
30.638687 10.188899 1.0095451 18.818182
30.426844 11.142904 1.025512 20.90909
30.442469 12.41173 1.2090816 63.5
30.228106 12.839874 1.2251244 21
30.766771 18.637428 1.5263774 14.5
30.333887 19.103987 1.5348598 41.333332
29.675177 2.1311593 0.40513927 3.2
29.530857 3.8581398 0.63811719 13
29.821613 5.7196388 0.6988889 23.142857
29.801769 6.3142653 0.68713802 22.065218
29.772739 7.3024669 0.73519212 23.765306
29.908932 8.3668213 0.83735162 19.445946
30.018269 9.2750015 0.93787408 17.553192
30.062424 10.224066 0.96195155 19.49091
30.050951 11.400793 1.010407 22.674999
30.017466 12.483698 1.2010953 63.857143
29.831602 12.974393 1.2207885 43.111111
30.01376 19.442446 1.5406332 15
28.69685 2.1949544 0.49652308 3.0869565
28.974501 6.3401947 0.72685254 11.181818
28.956743 10.038075 0.86246061 50.5
28.435286 1.918026 0.49901775 2
23.269634 11.185667 0.58652675 7.5
22.91073 9.4777145 0.599859 16.799999
22.867237 10.193483 0.70299256 17.935484
22.977932 10.997458 0.72994173 13.766666
23.061325 12.173737 0.94744283 13.333333
22.900789 13.21923 0.87156415 11.5
22.741096 26.047905 1.5746382 49
21.743677 5.1438918 0.38747454 3
21.347548 4.4862099 0.42422035 1
33.593445 2.3546014 1.0212156 21
34.294254 3.5819824 1.4967446 26
33.454521 6.6798129 1.5919709 6
33.689137 6.925581 1.8536464 15.333333
33.840431 8.4743633 1.7512058 14.25
33.009361 2.7355072 1.0100453 20.666666
32.613152 3.0522487 1.0057777 26.200001
32.763245 5.6637154 1.4663117 13.666667
32.499207 6.4934721 1.7309518 12.666667
32.761353 7.3724089 1.675809 16.548388
32.757866 8.3595343 1.6961898 13.931507
31.79694 3.6218345 0.99237311 19.444445
31.502739 4.194066 1.0086808 24.347826
31.709597 5.7550573 1.3743851 18
31.609222 6.3529472 1.6113985 14.1875
32.069885 7.2988367 1.8758792 12.275
32.107395 8.7237129 1.6365683 8.75
31.439999 9.1474466 1.9518188 18.77528
31.254728 10.208548 2.0648746 22.425531
31.220631 11.044187 2.0198781 24
31.175606 12.723781 2.212482 12
31.172298 12.87043 2.2301464 17.5
31.204136 14.299004 2.2357402 12.540541
31.178295 15.271563 2.155591 13.432432
31.264187 16.28861 2.0435586 18.040001
31.283424 17.246607 2.1320057 13.086957
31.283237 18.324106 2.2020583 17.333334
31.258963 19.189039 2.4591341 13.307693
31.28574 20.121958 2.6799712 10.333333
31.336216 21.662813 2.8542109 6
31.343832 22.247231 2.832562 10.285714
31.365536 23.261459 2.7792091 8.5
31.395906 24.203527 2.7585979 9
31.418447 25.291225 2.5631108 7.5999999
31.330246 26.340794 2.6430674 23.25
30.884115 2.7762551 1.3407397 3
30.786554 3.0739658 1.2087269 8.9210529
30.466019 5.7018528 1.4596336 54.119999
30.902475 6.1250978 1.4722683 16.700001
30.69451 7.173665 1.2513523 9.666667
30.600475 8.6326675 1.3297038 16.049999
31.224527 9.6772184 2.1464243 26
31.176636 10.463277 1.9368088 19.636364
31.152679 11.306009 1.8997369 22.549019
30.932907 12.266439 1.9719247 26.683332
31.022247 12.910427 2.0326395 25
31.09248 15.442223 2.5540085 10.428572
30.427063 18.556692 1.9802836 27.642857
30.390387 19.26726 2.3976877 22.90909
30.388744 23.188623 2.6577899 1.5
30.719341 26.40748 2.6205654 85.5
29.753252 1.9344835 1.2071788 0.33333334
29.514948 3.8339674 1.0150106 50
30.06226 5.6926928 1.0153852 12.333333
30.173491 5.9605393 1.0381238 13.235294
30.259035 7.135633 1.1173061 4.5
29.992947 8.6733694 1.3291132 22.875
29.897827 9.2382469 1.3448482 21.52564
29.919353 10.171604 1.3516983 21.121212
29.881523 11.303436 1.389869 24.178572
29.959633 12.380963 1.6312984 43.651161
29.784069 13.074579 1.5192854 30.76923
30.044716 18.675777 1.9714665 22
29.991856 19.299458 2.0185561 27.333334
29.984724 19.828749 2.0603633 9
28.70676 2.3459401 1.1859816 12.083333
28.956818 6.3111773 1.0829818 127.42857
28.94486 10.023546 1.2442877 29.5
28.245348 1.9730396 1.1155987 2.7692308
24.175184 3.6130071 1.1387581 16
23.983358 3.6879706 0.86287546 12
23.241476 11.316185 1.5038809 16.700001
23.22788 11.709752 1.5241926 12.5
22.657528 4.151989 0.72787076 66.63636
22.51255 9.346674 1.3406137 22.595041
22.876711 10.033834 1.3955057 19.916666
23.074282 10.974569 1.4702796 17.182539
23.045719 12.089602 1.3992544 10.727273
22.462683 18.692944 1.8516619 51
22.478277 25.981333 2.2408223 65.800003
21.604107 5.0568004 0.80340618 1.037037
21.344023 7.1005788 1.0271834 10
21.594168 8.2645035 0.92341232 13.757576
21.847332 8.9586897 1.4894072 19.649717
21.893148 9.7546291 1.3377554 6
21.880556 11.213711 1.2089827 6
21.303574 12.192715 1.5320156 12
20.63331 4.1111202 1.0055327 2.2564104
21.175537 5.0432692 1.0545738 5.9499998
20.535692 7.4096556 1.2653702 16.65
20.426981 7.8668365 1.4415939 16.450705
20.781752 8.8219204 1.415596 12.225806
21.181992 11.175071 1.3916198 9
20.814659 13.902399 1.4903076 3
19.957367 3.249047 0.84201229 0
20.160528 4.3152542 1.2330196 3.3499999
19.604719 4.9916744 1.3267624 6.5806451
19.565357 5.5461988 1.434386 18
19.922182 7.1839862 1.4309273 16.773438
19.916996 7.948957 1.4715501 13.071428
20.019434 8.9504528 1.4418721 13.954545
19.262907 4.5127373 1.2783004 1
19.014645 5.2320795 1.3148626 6.590909
18.508266 6.1674428 1.4097555 3.4000001
19.00811 6.692915 1.4199967 13.666667
18.996494 8.3918352 1.5333016 9.5
18.440554 8.697506 1.6295366 9.5
18.20155 7.3582668 1.5234518 28
18.036551 9.8481531 1.5110468 8.2222223
16.933857 11.047744 1.484931 4.3333335
16.137089 10.88835 1.497209 3
15.500111 11.934956 1.6319985 1
31.497034 4.1870437 0.76756155 24.5
31.188961 9.5975571 1.1405599 13
31.208244 10.584267 1.2037181 17.5
31.169146 12.730095 1.3319651 28
31.392868 13.811808 1.4032648 7
31.328304 14.704521 1.4517542 16.285715
31.287695 15.429961 1.3089559 17.583334
31.297449 16.412415 1.5461446 17.82353
31.314606 17.38413 1.600384 12.7
31.29884 18.460762 1.6584754 12.428572
31.367405 19.228596 1.7029872 14
30.642368 3.2272391 0.66170257 11.625
30.627449 7.9321785 1.0109162 19
30.728886 8.3169641 1.0404038 17.200001
30.798882 9.459033 1.074386 15.1
30.501831 10.010969 1.044542 16.714285
30.288376 11.514423 1.1007993 25.166666
30.235842 12.299402 1.1786706 52.892857
30.331352 13.271173 1.3316741 10
30.315548 18.555397 1.6220317 20.666666
30.014896 19.302471 1.6490576 24.6
29.828878 5.552351 0.67055464 23.852459
29.818619 6.4986787 0.75393736 24.023529
29.758505 7.443223 0.76569533 21.989361
29.87224 8.6348114 0.8729251 19.244898
30.005108 9.4363813 1.0148902 11.044444
29.915119 10.381522 1.1091305 23.388889
29.992594 11.471386 1.1092658 20.543478
29.82934 12.50264 1.0705711 26.799999
29.753563 13.07824 1.1655061 23.416666
28.626507 2.9171553 0.5596416 23
28.943279 6.3315158 0.73081613 21.363636
28.92145 10.029354 0.92325294 68.909088
23.190052 10.983969 0.63578212 9.75
23.179142 12.112778 0.63556278 8
22.795162 26.041397 1.6479321 49
22.938179 10.619961 0.58562344 11.4
22.916157 11.029953 0.76523596 20.0625
22.943563 12.04161 0.7634691 10.588235
22.752468 12.997638 0.93914187 14.333333
22.616987 18.760567 1.2631034 57
21.70858 5.2226949 0.414404 1
21.846857 5.8373928 0.47296274 1
21.340912 4.5834112 0.33882076 1
34.091434 3.3407164 1.9327278 1
34.03635 4.9367723 1.6279676 9
34.045448 5.8730903 2.0356102 7
33.308762 6.9385862 1.6719551 21
33.672688 7.4743209 1.7456815 9
33.711468 8.3164215 1.721763 15.684211
32.484291 3.3108158 1.0632774 24.166666
32.767319 5.3468037 1.2095206 15.5
32.5821 6.595849 1.775475 11.590909
32.710911 7.465632 1.6153839 19
32.749866 8.525568 1.7807105 14.615385
32.125187 3.6772065 1.0615444 23.833334
31.619158 4.3810186 1.0708025 26.1875
31.593548 5.7683477 1.6157565 14.125
31.548559 6.5389495 1.4240767 15
31.930868 7.361691 1.7936163 13.88
31.696602 8.8233805 1.9628844 13.148149
31.250124 9.4376802 1.9161875 22.803738
31.205257 10.406793 1.9865887 23.9
31.156422 11.372093 2.1020105 27.554348
31.101387 12.412458 2.1413722 19.416666
31.215376 13.666433 2.2357719 19.5625
31.177559 14.423914 2.2481389 14.918367
31.153126 15.366674 2.2143717 15.603773
31.256702 16.40593 2.2723737 16.439024
31.275309 17.437252 2.2338138 13.535714
31.2813 18.449699 2.343076 18.08
31.30847 19.487141 2.4002223 14.157895
31.29166 20.088787 2.5808609 11.333333
31.32337 21.644894 2.6937981 6.4285712
31.349339 22.376949 2.7299442 7.7142859
31.406563 23.37957 2.8861549 10.833333
31.449598 24.391403 2.9403269 8.3999996
31.470455 25.229389 2.8811471 8
31.096657 26.402958 2.7708683 18
31.526379 27.193295 2.863106 6
30.639683 3.2456417 1.0191479 7.0999999
30.982937 4.8356361 1.2759082 26.928572
30.653934 5.4877386 1.4663403 33.283184
30.885965 6.1835461 1.3909602 14.38
30.566484 7.2289991 1.6277807 4.090909
30.410517 8.6612082 1.3523536 6.125
30.339823 10.252959 1.384068 16.666666
30.967831 11.795345 1.825181 28.363636
30.431751 12.416655 1.9895735 47.454544
30.058764 13.086517 1.5879385 25
30.480698 18.724382 2.0818863 22.5
30.487032 19.346535 2.3450513 48.549999
30.411013 23.085814 3.0330014 1
30.265186 5.7017298 1.0616719 27.5
29.925709 8.734416 1.3188003 14.555555
29.909979 9.3688164 1.2932837 18.666666
29.850483 10.376993 1.3604068 20.971428
29.846836 11.435891 1.4423308 20.088236
29.808548 12.392345 1.5158652 29.583334
29.801834 13.106955 1.5731168 25.538462
28.495533 2.9172053 1.1836764 19.458334
28.930056 6.3088789 1.1189502 63.363636
28.912821 9.9798613 1.2667999 229.5
28.341948 2.92314 1.0596828 26.700001
23.147238 10.640071 1.3806429 18.90909
23.172009 11.139168 1.4657228 18.120253
23.160061 12.032142 1.4384556 10.909091
22.732922 25.96413 2.6505029 48.285713
22.625565 4.066781 0.74369407 27.904762
22.949636 10.540875 1.3986962 18.160494
22.919649 10.912818 1.3173978 17.152382
22.884834 12.186952 1.6160071 11.5
22.802235 12.73675 1.419881 15.5
22.477657 18.651861 1.7153556 79.400002
22.483728 18.70298 2.1062627 29.636364
22.507925 25.976759 2.4011443 47.400002
21.371113 4.6061449 0.79089791 0
21.686424 5.3301897 0.71434546 0.57692307
21.772411 5.8465648 0.72604078 1.0465117
21.249651 8.1625624 0.92205888 12
21.340172 8.8344212 1.4825248 14.05
21.864695 10.077093 1.2318033 15.75
21.592489 11.216127 1.2284939 12.1
21.704977 11.970309 1.2793163 17.09091
21.614845 13.223682 1.3450665 6
20.580469 4.1327925 0.99192846 1.0222223
21.142117 5.1525187 1.0179902 3.1363637
20.389688 7.4349766 1.323899 13.052631
20.468157 8.0034828 1.2968688 14.564417
20.908604 8.8427753 1.492606 12.826087
21.015377 9.7895241 1.5721393 11.5
21.075724 10.843308 1.3796782 9
20.524273 11.997473 1.4841306 8.5
20.17775 4.123991 1.1838158 1.8888888
19.694042 4.8188124 1.1828387 3.8571429
19.531601 5.5878367 1.3921684 1
19.895407 7.1912394 1.3441849 16.697916
19.811119 7.9704986 1.4064109 13.372093
20.007895 8.8794365 1.4345207 13.576923
19.133606 4.5259924 1.2499833 0
18.849731 5.3480654 1.271843 1.0909091
18.682962 5.7074604 1.2906265 1.6
19.139809 6.7069168 1.408319 7.5
18.41177 8.9710121 1.4387116 11.222222
18.009129 9.301259 1.3790421 12.090909
31.378897 13.711014 1.39153 15
31.332664 14.648397 1.387655 19.416666
31.294981 15.208086 1.3682437 17.34375
31.295551 16.332895 1.5311421 23.411764
31.301659 17.282677 1.5816536 15.307693
31.312599 18.347481 1.6377561 13.4
30.628143 7.8171687 1.0006622 21
30.665855 8.0737629 1.0195314 21.714285
30.860861 9.2797613 1.075402 23.928572
30.689932 10.139295 1.1550395 13.5
30.529953 11.394897 1.2256862 17
30.395168 12.172908 1.1898086 35.578949
30.240377 13.084153 1.3117706 11
31.18866 15.219135 1.1361841 14.666667
30.552343 18.605663 1.617938 16.5
30.341133 19.16906 1.6373421 24.5
29.53619 3.8640709 0.53995228 22.75
29.841419 5.4920702 0.74890745 27.535715
29.812841 6.4366384 0.73840439 24.61039
29.75098 7.3883591 0.75412643 23.181818
29.878006 8.4515276 0.84881318 17.686274
29.986971 9.309679 1.0013431 12.107142
29.927818 10.333925 1.0802851 17.955555
29.984783 11.323206 1.1282984 17.075001
29.927349 12.415114 1.1701823 38.760868
29.758196 13.0403 1.1643465 21.280001
30.105183 18.641346 1.5999506 22
30.054211 19.079853 1.6199739 54
30.113251 20.024517 1.6704919 4.5
28.933918 6.3274798 0.70749164 22.083334
28.920311 10.042357 0.88097501 63.299999
22.599686 11.620633 0.79215443 16.625
22.880663 12.308705 0.81045389 12.830986
22.878315 13.113993 0.89065963 10.954545
22.632254 18.779263 1.2324102 57
22.651461 18.883423 1.2385684 22
22.76746 26.039406 1.593056 50
21.823603 5.7428446 0.43616197 1
21.915871 6.537055 0.50504929 1
21.960314 6.832202 0.53107113 1
33.974213 4.6226311 1.2681079 17.5
33.579994 5.3209295 1.6339049 17.5
33.663322 6.6060534 1.3664539 13.75
33.588604 7.2969351 1.777025 18.777779
33.798161 8.2397394 1.7512488 16.799999
32.784214 5.3024278 1.2253914 20
32.511078 6.370369 1.8159583 10.541667
32.667698 7.3249636 1.6179291 20.849056
32.789032 8.3519926 1.8765419 15.928572
31.699345 4.2277861 1.0877738 12.75
31.631182 5.4927702 1.4926236 13.4
31.646662 6.3340721 1.4501908 15.954545
32.026379 7.3722391 1.8591514 13.777778
31.967442 8.7618589 2.0231943 8.333333
31.287943 9.2888927 1.9720936 24.22093
31.217892 10.207767 1.9741354 26.571428
31.180401 11.154348 2.2317445 17.565218
31.161345 12.241878 2.4003181 26
31.247812 13.541059 2.1826072 22.450001
31.203167 14.255512 2.1234593 16.549019
31.227194 15.291559 1.8076069 17.272728
31.246407 16.330729 2.2248533 18.595745
31.25589 17.248951 2.3529894 12.795918
31.276323 18.295475 2.2583866 16.285715
31.253735 19.205173 2.4702158 15.928572
31.265846 19.975029 2.6505845 7
31.303785 21.410563 2.8138433 10.8
31.321108 22.290241 2.7783413 5.75
31.352364 23.249134 2.7630172 12
31.395969 24.233156 2.8395336 8.25
31.433258 25.133068 2.9649293 8.333333
31.460583 26.051544 2.9744594 6.5714288
31.482327 27.097046 2.7794237 7.25
31.035124 4.7625732 1.1645427 21.666666
30.610487 5.4576273 1.4529209 41.032608
30.910931 6.0394135 1.5015304 20.360001
30.495411 7.2243834 1.4735785 3.1428571
30.811949 9.3743925 1.7004896 17
31.170547 10.462614 1.8451099 25.058823
31.133638 11.319984 1.9664793 23.023256
30.977758 12.26342 2.0949042 22.522936
31.142771 12.809566 2.2751541 27.333334
31.146484 14.634132 2.3124282 14.875
31.128313 15.24271 2.3027854 15.244445
31.131157 15.815725 2.36554 16.5
30.593708 18.531487 2.0243235 28.4
30.492477 19.349075 2.51806 31
30.369785 23.121956 2.6603885 2
30.825741 26.353882 3.0103226 48
29.934593 8.6994152 1.3275309 14.291667
29.926149 9.2665911 1.3452969 15.146667
29.87355 10.314971 1.3578334 16.473684
29.851738 11.305054 1.415755 18.674419
29.988647 12.45869 1.7334566 38.391891
29.801653 13.129642 1.5445309 22.375
30.066498 18.589172 1.9957764 34.5
29.987421 19.233139 2.0432189 26.545454
29.956018 19.977676 2.1020048 7
28.930601 6.3227448 1.0173123 87.333336
28.901667 9.9980307 1.2500334 58.900002
23.219358 11.676619 1.5456848 19.153847
23.220251 11.839727 1.5822825 11.25
22.614416 4.0853434 0.71631473 46.727272
23.065666 11.68783 1.3529553 18.439024
23.047153 12.220435 1.4660448 13.759036
22.704845 13.018523 1.3473399 10.7
22.454212 18.672199 1.8945715 54.84
22.550631 18.764473 2.0813394 24
22.584843 25.949169 2.4628575 46.384617
21.758772 5.4552193 0.75155365 1.25
21.763468 6.392837 0.80973786 0.71942449
21.78776 6.9041824 0.83396804 0.85714287
21.710432 10.64382 1.2412962 11.8
21.790375 11.088024 1.1464165 18.181818
21.880472 12.229455 1.4514707 8.333333
20.48772 4.0626755 1.0633563 2.4615386
21.087851 5.0088215 1.0215344 1
20.479309 7.4382844 1.2062333 3.2280703
20.446323 8.0567255 1.369729 7.915493
21.132042 8.9590206 1.3937075 10
20.87011 10.434185 1.2384992 9.333333
21.099331 10.946651 1.1360867 16.25
19.926638 4.3722053 1.1783915 2.090909
19.425407 5.1235795 1.2907624 2.2307692
19.383545 6.6888499 1.2714026 2.2
19.993549 7.2202635 1.3572102 3.1355932
19.775871 7.9424782 1.4475667 8.8387098
19.161509 5.2475338 1.3065274 1.1428572
19.146441 6.5227165 1.2924311 1
19.194466 8.0155506 1.5003178 9
31.450617 13.450664 1.3487782 5
