# .PCD v0.7 - Point Cloud Data file format
VERSION 0.7
FIELDS x y z intensity
SIZE 4 4 4 4
TYPE F F F F
COUNT 1 1 1 1
WIDTH 1262
HEIGHT 1
VIEWPOINT 0 0 0 1 0 0 0
POINTS 1262
DATA ascii
12.905828 -53.514202 -0.39330965 57.734375
12.828939 -54.235031 -0.55992138 51
12.955185 -47.465576 -0.49075338 35.555557
17.984276 -46.645088 -0.23701 25.666666
21.067968 -57.775032 -0.52560961 32
21.105774 -58.435036 -0.55216777 32
21.165186 -59.434803 -0.59295905 32
21.295376 -60.558346 -0.6404295 32
21.259911 -61.428661 -0.67551887 32
21.285412 -62.513737 -0.72070134 32
21.253628 -63.542652 -0.76312649 32
21.293755 -64.642532 -0.8097707 32
21.282223 -65.368065 -0.84018338 32
20.819714 -46.722702 -0.21794391 32
20.870848 -47.686417 -0.28042665 32
21.244791 -54.9259 -0.53611457 24
21.293011 -55.213539 -0.4345296 27.666666
21.63143 -57.36673 -0.52003223 32
21.32443 -58.556835 -0.56062663 32
21.473772 -59.480225 -0.59972358 32
21.585566 -60.662731 -0.64905763 32
21.026522 -46.452053 -0.21791965 32
21.383209 -47.718143 -0.27275857 32
21.828907 -48.302418 -0.26337177 32
21.832409 -49.522816 -0.28703701 32
21.83242 -50.236897 -0.30232599 27.26923
21.850161 -51.560928 -0.33459696 15.846154
21.87792 -52.797184 -0.36923623 22.181818
21.854012 -53.443264 -0.38815758 32
21.957895 -54.365536 -0.41973031 32
21.968975 -55.221413 -0.44872603 32
22.152086 -56.627441 -0.50235415 32
22.160154 -57.168747 -0.52241731 32
10.968908 -57.115959 0.22345003 32
11.011368 -57.757504 0.23008192 32
10.999054 -58.653477 0.15866092 32
10.987883 -59.706638 0.1387521 32
10.991865 -60.632313 0.078918368 32
10.962564 -61.775845 0.12819269 32
11.02009 -62.72937 0.11801168 32
11.276995 -63.865368 0.18818045 32
11.086474 -64.652603 0.21074119 32
10.934815 -55.785831 0.26354307 20.325581
10.987327 -56.671616 0.19298354 20.264957
11.044069 -57.425632 0.12707821 32
11.873392 -60.890423 -0.23913915 32
12.194058 -61.384178 -0.24750248 32
12.466191 -62.693089 0.1168592 32
13.231364 -68.619614 0.2738848 32
13.286758 -69.160324 0.2871938 32
12.587056 -61.641514 -0.25411555 32
12.820396 -62.754906 0.17055926 32
13.056953 -63.786568 -0.04425016 32
13.193356 -64.477486 0.16808859 32
13.222787 -65.66571 0.19802824 32
13.261242 -66.583572 -0.03912273 32
13.244053 -67.74926 0.25128564 32
13.348076 -68.576233 -0.032002985 32
13.455385 -69.221924 0.079594582 32
13.750735 -70.17662 0.30853361 32
12.794416 -47.819344 0.44345382 37.777779
12.80092 -48.513424 0.3986952 44.700001
12.803519 -49.498432 0.36048999 53.468086
12.811928 -50.058853 0.30433577 57.834709
12.908116 -53.524467 0.22947881 57.304932
17.798328 -46.484253 0.073417246 24.799999
17.946518 -46.605846 0.28433844 25.224138
21.255407 -67.935135 -0.34472761 32
21.266144 -68.602913 -0.35118905 32
21.300545 -69.590767 -0.36067736 32
21.315832 -70.688377 -0.37112767 32
20.990747 -56.963444 -0.042910084 32
21.02294 -57.540642 -0.047396913 32
21.049608 -58.479729 -0.19646321 32
21.076754 -59.53384 -0.25649834 32
21.131857 -60.629654 -0.26909086 32
21.09914 -61.481346 -0.27880353 32
21.380947 -62.902245 -0.29342926 32
21.289759 -64.707031 -0.31253767 32
21.267765 -65.565994 -0.32129401 32
21.236601 -66.568886 -0.33133712 32
21.392166 -67.487183 -0.14293993 32
22.298096 -68.647964 0.28902721 32
22.272089 -69.36322 0.30475944 32
20.736364 -46.603767 0.18090218 32
20.784225 -47.545135 0.14914325 20.5
21.250111 -54.899624 -0.057348534 19.829268
21.128069 -55.288311 -0.020001143 23.130434
21.418737 -56.822628 -0.0064031333 32
21.721987 -57.403328 0.067371398 32
21.946289 -58.370117 0.30414927 32
22.186069 -59.722343 0.4094716 32
22.163971 -60.454521 0.37334618 32
22.313255 -61.815853 0.15100941 32
22.149799 -62.42514 0.15795648 32
22.172312 -63.070446 0.17036745 32
22.262634 -64.292938 0.19596067 32
22.19899 -65.250366 0.21409521 32
22.304234 -66.507141 0.24235386 32
22.253296 -67.511871 0.26321805 32
22.4571 -68.577034 0.28975549 32
21.099522 -46.46394 0.34895948 32
21.717045 -47.58675 0.49339595 31.795918
21.808643 -48.420712 0.40121832 32
21.8162 -49.46405 0.34714702 23.922155
21.824341 -50.242867 0.30229962 13.676767
21.849367 -51.513557 0.23602381 15.441176
21.885109 -52.794865 0.23029378 13.701755
21.882587 -53.448822 0.22801691 19.625731
22.00688 -54.473396 0.2218124 32
22.05534 -55.434467 0.47096792 32
22.075056 -56.284286 0.19988897 32
22.204517 -57.349586 0.26428983 32
22.439594 -59.43906 0.48574051 32
21.876175 -46.45615 0.68486369 32
21.908056 -47.035324 0.88056302 32
10.781841 -54.70821 -0.46555346 33.622223
10.812264 -55.317657 -0.43269357 30.591837
10.887726 -56.358643 -0.45298588 24.119404
10.907238 -57.349976 -0.5113225 20.716982
10.917328 -58.297897 -0.575064 32
10.853471 -59.341263 -0.47907376 32
10.864151 -60.277584 -0.49231768 32
10.992461 -61.177166 -0.52774709 32
11.545974 -62.046173 -0.56228906 32
12.288402 -60.514496 -0.50031298 32
11.709479 -61.105091 -0.52419895 32
12.287669 -62.518192 -0.58207417 32
12.395434 -63.154915 -0.60847509 32
12.817326 -48.412582 -0.29756588 33.333332
12.785083 -49.362755 -0.30618519 42.938053
12.813881 -50.330597 -0.31929719 52.132183
12.830418 -51.000641 -0.30361667 57.636364
12.695245 -60.486492 -0.49932981 32
12.954024 -64.038704 -0.64632529 32
13.08227 -65.197563 -0.69485176 32
13.124022 -66.223923 -0.73768818 32
13.115803 -67.126175 -0.77521491 32
13.138352 -68.288315 -0.82372165 32
13.822114 -69.760506 -0.88834071 32
13.451336 -70.154694 -0.90298086 32
20.939415 -47.854824 -0.27167785 32
21.065844 -55.055984 -0.43891162 19.875
21.065907 -57.217808 -0.45861822 32
21.004507 -58.019062 -0.48609841 32
21.048525 -59.236454 -0.56226218 32
21.156183 -60.131336 -0.56776077 32
21.085655 -60.99942 -0.59993029 32
21.203588 -61.991417 -0.64053226 32
21.250463 -63.096565 -0.68481493 32
21.473316 -65.080055 -0.76711273 32
21.386541 -65.934547 -0.80022913 32
21.305973 -66.996101 -0.84201503 32
21.674997 -48.020596 -0.24955276 32
21.800621 -49.037212 -0.26718503 32
21.805885 -49.968754 -0.28268766 32
21.824539 -51.3941 -0.31035954 16.75
21.828526 -51.669785 -0.3161701 15
21.837082 -53.14938 -0.35119265 15.75
21.868353 -53.974659 -0.37389845 21.78125
21.903587 -54.944244 -0.40267903 31.105263
21.965128 -55.958664 -0.43552732 32
22.058731 -57.16946 -0.47767454 32
21.77969 -57.734978 -0.49136382 32
22.243446 -61.821762 -0.65120333 32
10.774256 -54.716644 0.39338374 33.138889
10.816553 -55.38308 0.27281553 30.014814
10.90941 -56.371025 0.27524978 24.03756
10.933346 -57.32671 0.25204939 16.911564
10.935163 -58.337238 0.21999566 31.360825
10.887253 -59.319866 0.23591153 32
10.928098 -60.330551 0.10634856 32
10.97946 -61.255402 -0.008669734 32
10.952635 -62.30101 0.32453012 32
10.925598 -63.226692 0.2512067 32
11.089949 -64.343979 0.13389646 32
10.981737 -64.937416 0.22579958 32
11.794146 -60.775898 -0.20356673 32
12.182413 -61.362839 -0.21351375 32
12.442685 -62.549206 0.14291064 32
12.066504 -62.929417 0.52441198 32
12.778337 -48.388901 0.44928801 32.284092
12.775561 -49.381008 0.41025084 42.464165
12.800429 -50.373493 0.37794691 51.737904
12.821194 -51.028473 0.31779778 57.135849
12.765705 -62.794041 0.16173048 32
12.921028 -62.998322 0.17788415 32
12.98591 -63.964211 0.17575319 32
13.083807 -65.351944 0.012158796 32
13.115313 -66.321922 -0.022554532 32
13.132236 -67.361549 0.040564641 32
13.125537 -68.235535 0.27187538 32
13.2544 -69.15493 0.10190187 32
13.567025 -70.234718 0.32121676 32
13.946161 -69.775627 -0.29265034 32
20.897612 -47.82843 0.17629842 32
21.109198 -55.087589 -0.033767596 19.086206
21.108418 -55.616474 0.04142265 16
21.066303 -57.135281 -0.039575696 32
21.088051 -58.067211 -0.078441933 32
21.097637 -59.053711 -0.17373997 32
21.121588 -60.231018 -0.24166656 32
21.172401 -61.111572 -0.25050634 32
21.139206 -62.130798 -0.26055968 32
21.167591 -63.162022 -0.27009511 32
21.379555 -67.156975 -0.19280656 32
21.300964 -68.001892 -0.31131357 32
21.327532 -69.141838 -0.32049108 32
21.353573 -70.016609 -0.327447 32
21.406012 -71.078438 -0.33582383 32
21.443918 -72.249084 -0.3449527 31.5
21.743971 -48.122589 0.41370916 32
21.782436 -49.086445 0.4065994 32
21.794434 -50.062313 0.36050224 30.668789
21.821926 -51.453266 0.31338292 14.84375
21.819759 -51.661835 0.26208669 14.75
21.855074 -53.136799 0.24059917 15.186336
21.918709 -54.070896 0.2237017 18.405714
21.986509 -54.981354 0.29506999 30.685484
22.028328 -56.091312 0.29398179 32
22.074596 -57.115421 0.17474256 32
22.092096 -58.040108 0.33261907 32
22.26053 -59.213074 0.43545282 32
22.162899 -60.033661 0.36320871 32
22.225834 -60.920948 0.38549 32
22.294506 -61.904243 0.32302743 32
22.169277 -62.932999 0.16166492 32
22.336519 -64.161606 0.18959771 32
22.21096 -65.049194 0.20567794 32
22.390852 -66.348534 0.23722972 32
22.263426 -67.071777 0.25141275 32
22.378857 -68.051552 0.2757526 32
22.366175 -68.913322 0.29586858 32
22.320099 -69.828934 0.31709361 32
10.782046 -53.719971 -0.56928396 39
10.775724 -54.22744 -0.42033774 38.167702
10.78264 -55.246609 -0.44664812 35.780144
10.839245 -56.237534 -0.48049986 31.614174
10.869011 -57.198112 -0.45841879 25.528572
10.872292 -58.203358 -0.51101416 19.196079
10.797544 -59.176174 -0.45556602 32
10.794195 -60.18293 -0.44167244 32
10.804095 -61.175049 -0.47730452 32
10.801251 -64.364769 -0.59507376 32
11.746923 -60.719894 -0.46088326 32
11.657646 -61.046997 -0.47289431 32
11.884249 -62.192436 -0.51602602 32
12.270533 -62.772682 -0.53886068 32
12.803571 -49.33836 -0.30854166 31.929825
12.802791 -50.296898 -0.32770953 41.901962
12.840335 -51.286926 -0.32095701 51.547771
12.859334 -51.970177 -0.34699327 57.223404
12.303412 -62.678303 -0.53538793 32
12.483799 -62.87925 -0.54365003 32
12.782907 -64.039574 -0.5892325 32
12.878748 -65.27301 -0.63707262 32
12.878281 -66.215988 -0.67338264 32
12.881978 -67.285423 -0.7146495 32
12.885804 -68.240692 -0.75155222 32
13.037814 -69.243721 -0.7912693 32
21.01582 -55.088131 -0.44635788 24.299999
21.055058 -57.372185 -0.45276594 29.384615
21.064714 -58.279472 -0.48158395 32
21.109535 -59.410355 -0.5198645 32
21.158699 -60.581074 -0.56094921 32
21.207354 -61.548164 -0.59583533 32
21.249878 -63.2183 -0.65651196 32
21.800703 -49.381485 -0.30719858 32
21.803005 -50.276745 -0.3181859 32
21.81809 -51.599678 -0.33749393 32
21.841894 -52.820637 -0.35917163 14.8
21.835041 -53.400379 -0.37045348 15.852942
21.93668 -54.402847 -0.39488429 27.575758
21.907078 -55.316788 -0.41626942 27.875
22.009724 -56.294304 -0.44481343 32
21.95631 -57.254608 -0.47094017 32
21.898603 -57.993397 -0.49181879 32
21.405602 -59.27523 -0.52172643 32
21.52066 -62.369831 -0.63107485 32
21.439049 -63.397099 -0.66645652 32
21.421173 -64.378456 -0.70185006 32
21.412472 -65.400345 -0.73928928 32
21.33284 -66.137665 -0.76525342 32
10.704233 -53.746841 0.74869782 36.5
10.762917 -54.252338 0.33663219 37.667553
10.779791 -55.258362 0.34452885 35.300274
10.865023 -56.204151 0.33109647 31.803846
10.892893 -57.229332 0.27231872 25.298164
10.893897 -58.172585 0.25308359 17.778524
10.818579 -59.229713 0.23036195 30.472221
10.831791 -60.210541 0.2489659 32
10.863598 -61.138378 -0.0015187413 32
10.81802 -62.176498 0.25897306 32
10.791235 -63.339283 0.43902421 32
10.952024 -64.123993 0.41934603 32
11.69255 -53.772778 0.21883352 50
11.772663 -60.681503 -0.18778595 32
11.867161 -61.178505 -0.17849259 32
12.185577 -62.501148 0.16975661 32
12.014459 -62.827728 0.13385577 32
11.452055 -63.918541 0.48367196 32
12.778728 -49.316387 0.40889406 30.993938
12.80267 -50.315624 0.39037716 41.48077
12.830914 -51.317692 0.3601504 51.055786
12.836766 -52.01646 0.30185413 56.779552
12.356886 -61.643963 -0.20254132 32
12.46035 -62.649864 0.13616221 32
12.765055 -62.934502 0.12922861 32
12.884974 -64.067825 0.14764906 32
12.967976 -65.148727 0.040998921 32
12.952188 -66.093918 0.099580064 32
12.950743 -67.223938 0.24057792 32
12.952156 -68.193398 0.26979685 32
13.063662 -69.188667 0.16159175 32
13.199495 -69.333656 0.025180683 32
13.306084 -70.138771 0.32303518 32
21.246777 -54.859684 -0.054595277 22
21.06369 -55.166218 -0.045045659 23.527273
21.095284 -56.774044 -0.075961575 15.866667
21.033215 -57.36742 -0.074443251 18.257576
21.03072 -58.355679 -0.071919024 32
21.09663 -59.34597 -0.0798098 32
21.138184 -60.380188 -0.17705502 32
21.142794 -61.369865 -0.25623345 32
21.205572 -62.507 -0.264332 32
21.212021 -63.31855 -0.26977491 32
21.772041 -49.408417 0.39633787 32
21.78356 -50.258205 0.33858019 32
21.810242 -51.583698 0.288369 22.68421
21.837826 -52.807365 0.25511467 14.620689
21.849535 -53.400433 0.21175142 15.37037
21.952175 -54.410835 0.18584664 13.863874
21.998518 -55.436157 0.3251968 25.311321
22.037445 -56.319046 0.19304226 31.655172
22.100483 -57.409618 0.34342098 32
22.098854 -58.259842 0.43433195 32
22.141186 -59.667179 0.34468198 32
22.193169 -60.39082 0.41682088 32
22.231976 -61.585957 0.31047779 32
22.163862 -62.372272 0.31951761 32
21.989862 -63.215858 0.034189209 32
22.244221 -64.244812 0.16058071 32
21.373606 -65.406189 -0.28275672 32
21.320759 -66.389282 -0.2883516 32
21.435579 -67.366257 -0.18903966 32
21.370255 -68.381058 -0.29926091 32
21.416691 -69.474403 -0.30505341 32
21.435314 -70.270393 -0.30914557 32
21.502024 -71.299477 -0.31447053 32
21.518389 -72.458641 -0.32018155 32
21.534435 -73.613464 -0.32576764 31
22.382751 -56.821465 0.43659592 32
22.373543 -57.149597 0.50353062 32
22.418337 -59.538891 0.39806622 32
22.464767 -61.679276 0.40965772 32
22.28698 -62.824802 0.52850831 32
22.373165 -64.340218 0.1654105 32
22.271458 -65.19191 0.18280579 32
22.400398 -66.469528 0.21566366 32
22.332394 -67.308197 0.23535444 32
22.503893 -68.453011 0.26697397 32
22.394913 -69.457489 0.2917192 32
22.568306 -70.820633 0.33007556 32
22.434639 -71.297401 0.34147722 32
10.843206 -53.580376 -0.44527674 37.275864
10.830507 -54.181458 -0.42723268 38.559212
10.860899 -55.242062 -0.4448711 39.061226
10.920616 -56.181263 -0.48296732 37.613335
10.946205 -57.172165 -0.51859307 33.086613
10.979845 -58.157051 -0.49502945 26.855072
10.927446 -59.139591 -0.4752683 19.351351
10.945889 -60.134258 -0.46938992 32
10.967907 -61.052292 -0.50702643 32
11.005831 -62.66753 -0.574848 32
11.02339 -64.228851 -0.64180619 32
11.01549 -64.768127 -0.66519827 32
12.101029 -53.688725 -0.4301002 52.705128
11.775433 -53.730251 -0.41424036 49.076923
11.662123 -54.962147 -0.5354386 49
11.848148 -60.636978 -0.48273277 32
11.789273 -61.061718 -0.50117183 32
11.854697 -62.111828 -0.54575396 32
12.067873 -62.946495 -0.58075726 32
12.868567 -50.326466 -0.33672458 32.047619
12.875493 -51.294144 -0.32305333 42.34737
12.918318 -52.306309 -0.36657232 52.305557
12.837111 -53.079624 -0.36089009 57.486725
12.44363 -62.30669 -0.55112332 32
12.683334 -62.866676 -0.57465154 32
12.957641 -63.949608 -0.62155741 32
13.129333 -65.235573 -0.67818713 32
13.143378 -66.213081 -0.72164804 32
13.167006 -67.130859 -0.7625019 32
13.187809 -68.190651 -0.80974096 32
13.374635 -69.175453 -0.85357136 32
20.985878 -54.865898 -0.51465821 27
21.116274 -55.061943 -0.35510385 25
21.042101 -57.416546 -0.40056697 18.666666
21.049036 -58.305214 -0.43238759 24.555555
21.123104 -59.392567 -0.47434628 32
21.066561 -60.619911 -0.52152342 32
21.237968 -62.503696 -0.60038418 32
21.875923 -50.269753 -0.2357455 32
21.881807 -51.611496 -0.26059529 32
21.883608 -52.840408 -0.2863723 32
21.892914 -53.469593 -0.30117065 28.135136
21.992392 -54.427925 -0.32716393 28.051283
21.920645 -55.531555 -0.35652083 26.75
22.074749 -56.365799 -0.38479453 32
21.980015 -57.336109 -0.41466856 32
21.706694 -58.48624 -0.44998923 32
21.826662 -59.141449 -0.47600299 32
21.529598 -60.521049 -0.52428848 32
21.613903 -61.340462 -0.55799985 32
21.533375 -62.380737 -0.59907001 32
21.362965 -63.311111 -0.63544804 32
21.337816 -64.465355 -0.68362272 32
21.316837 -65.361122 -0.72143281 32
10.73135 -53.617931 0.2980426 35.803921
10.808606 -54.216805 0.32295567 37.952129
10.840679 -55.222862 0.28630167 38.591133
10.935406 -56.216808 0.30324656 37.311047
10.971836 -57.190105 0.27214795 33.044827
10.997814 -58.184387 0.201948 26.672897
10.940351 -59.178429 0.21529292 17.966442
10.974809 -60.16518 0.14430584 27.290001
11.000595 -61.153824 -0.0041667223 32
11.009381 -62.093048 0.13357009 32
11.036459 -63.36478 0.31347591 32
11.081023 -64.19812 0.35905606 32
11.117048 -64.733971 0.47097838 32
12.15062 -53.713749 0.34954143 52.863945
11.803852 -53.751781 0.22847138 49.133335
11.934522 -60.706703 -0.24578589 25.166666
11.930336 -61.027962 -0.20419942 32
11.780005 -62.115913 -0.0029865354 32
12.173299 -62.848686 0.13087802 32
11.565743 -64.028038 0.41741031 32
12.830867 -50.3022 0.42872846 31.07947
12.861341 -51.31448 0.39426261 41.828243
12.879711 -52.304245 0.35396796 51.275055
12.823009 -53.109928 0.28617769 57.021278
12.366573 -61.509586 -0.23014431 32
12.541188 -62.545181 0.044312999 32
12.936264 -62.904602 0.042215899 32
13.07737 -63.995422 0.085623577 32
13.165158 -65.041725 0.15294503 32
13.215706 -64.392944 -0.0629289 32
13.214638 -65.336075 0.044800684 32
13.221773 -66.088593 -0.027323261 32
13.217777 -67.310524 0.11657192 32
13.247078 -68.153618 0.13671704 32
13.432404 -69.16478 0.020956561 32
13.679894 -70.212906 0.18338721 32
21.1278 -54.870426 -0.0042078644 24.833334
21.097544 -55.203369 0.0077648759 25.086956
21.080332 -56.796143 -0.022771999 21.15
21.022818 -57.409348 -0.046901748 18.863014
21.04479 -58.419292 -0.05690217 19.103449
21.054388 -59.380032 -0.059970379 32
21.122181 -60.382111 -0.059411854 32
21.143284 -61.305466 -0.1803527 32
21.145517 -62.450382 -0.26293242 32
21.169872 -63.347027 -0.27451801 32
21.194687 -63.941353 -0.28193054 32
21.83967 -50.262505 0.46233559 32
21.861174 -51.551674 0.39523786 32
21.881107 -52.827511 0.36970663 22.342106
21.889666 -53.45694 0.31932557 14.585799
22.005634 -54.41832 0.28755575 13.408046
22.000088 -55.510551 0.32921958 15.388889
22.061302 -56.320255 0.20129831 25.723215
22.105196 -57.578197 0.43432552 31.453125
22.103777 -58.354458 0.46214956 32
22.124615 -59.692444 0.33962721 32
22.09269 -60.491222 0.34083384 32
21.703575 -61.554394 0.19527279 32
22.167049 -62.394745 0.37087721 32
21.976484 -63.09256 0.017437771 32
21.568594 -64.24015 -0.14762478 32
21.325962 -65.354279 -0.29846179 32
21.256691 -66.408264 -0.31152153 32
21.33189 -67.391533 -0.22428225 32
21.315861 -68.409386 -0.33433491 32
21.329712 -69.299782 -0.34431905 32
21.373085 -70.370338 -0.35604501 32
21.37557 -71.303406 -0.36631811 32
21.396465 -72.257172 -0.37663895 32
21.416481 -73.462341 -0.38959241 32
21.478172 -74.704124 -0.40269333 31
22.409346 -56.767025 0.34241074 32
22.393471 -57.182129 0.57174146 32
22.377151 -58.920879 0.65745407 32
22.391405 -59.445633 0.43130082 32
22.417942 -61.772949 0.4504444 32
22.251007 -62.674854 0.4736526 32
22.370264 -63.339115 0.50628531 32
22.308483 -64.302177 0.13254742 32
22.218826 -65.193535 0.14392398 32
22.338848 -66.465225 0.16877063 32
22.253954 -67.393112 0.18350874 32
22.447063 -68.560013 0.2099786 32
22.300888 -69.384064 0.22302471 32
22.477036 -70.814835 0.25552088 32
22.337576 -71.477615 0.26664394 32
22.348042 -72.114334 0.28025711 32
10.829426 -53.704384 -0.40754062 32.847221
10.833538 -54.494614 -0.38512474 36.477875
10.879101 -55.543396 -0.42174751 39.409092
10.921995 -56.495342 -0.45151752 39.644173
10.943001 -57.478523 -0.49505794 36.925171
10.950355 -58.461628 -0.53415167 31.845455
10.938053 -59.473385 -0.48624581 24.671429
10.972306 -60.443954 -0.53221279 20.703703
11.000995 -61.372299 -0.66436946 32
11.094904 -62.311676 -0.6443643 32
11.025988 -63.346935 -0.55404741 32
11.121473 -64.712143 -0.95408934 32
11.999395 -53.806507 -0.37486991 46.371796
11.715851 -55.060661 -0.55104965 48.727272
11.876205 -60.814114 -0.44416642 20.636364
11.963328 -61.391888 -0.51196015 23.200001
12.227746 -62.404991 -0.54256171 32
12.05611 -63.458595 -0.84301656 32
11.668908 -63.973206 -0.88859767 32
12.893272 -51.53442 -0.34904295 33.400002
12.898544 -52.489853 -0.32065713 43.490002
12.831421 -53.54855 -0.35489249 52.650444
12.530989 -54.808662 -0.58659768 57.75
12.693748 -62.895672 -0.52648628 32
12.891375 -63.674873 -0.55923563 32
13.038862 -64.221405 -0.58240592 32
13.121692 -65.406693 -0.63351303 32
13.138185 -66.43454 -0.67810589 32
13.165952 -67.378555 -0.71913135 32
13.193105 -68.284912 -0.75858021 32
13.323298 -69.313858 -0.80341196 32
21.163506 -55.243454 -0.33375725 24.09091
21.125969 -57.363777 -0.49077499 22.53125
21.054062 -58.088272 -0.47781271 20.607143
21.094742 -59.262901 -0.43597364 27.666666
21.165838 -60.269947 -0.47360438 32
21.25193 -61.238972 -0.51135737 32
21.142519 -62.297691 -0.55085844 32
21.215565 -63.307858 -0.5920369 32
21.271091 -64.178818 -0.62790596 32
21.440887 -65.153656 -0.6698392 32
21.364935 -66.116119 -0.70864636 32
21.394331 -67.131805 -0.75127494 32
21.368887 -68.281761 -0.79925615 32
21.294003 -69.218277 -0.83808017 32
21.400188 -70.364876 -0.88772917 32
21.334175 -70.910278 -0.91035473 32
21.894705 -51.631065 -0.25673732 32
21.900497 -51.827557 -0.26016432 32
21.894361 -53.236382 -0.28596243 32
21.973322 -54.298634 -0.30980647 32
21.977745 -55.311012 -0.33379275 27.73913
22.039421 -56.224445 -0.35873887 31.451612
22.094059 -57.048996 -0.42957801 29.5
21.791183 -58.16032 -0.41155899 32
21.927372 -59.356792 -0.45403647 32
21.789894 -59.85659 -0.46914059 32
21.705585 -66.240356 -0.71766663 32
10.772449 -53.765102 0.27149814 32.222221
10.81069 -54.524406 0.35363072 35.772854
10.85417 -55.523251 0.30291188 38.687344
10.930817 -56.511658 0.27608281 39.344475
10.966291 -57.502201 0.27687949 36.781769
10.968777 -58.46492 0.23306526 31.847908
10.933951 -59.49474 0.22138493 24.242857
10.954399 -60.419682 0.15846275 17.045113
10.964876 -61.446537 0.068046704 31.012987
11.016588 -62.368118 0.24837016 32
11.043793 -63.508926 0.23752819 32
11.145144 -64.396317 0.40038031 32
12.005009 -53.841351 0.34692013 46.091286
11.875625 -60.837982 -0.23276851 20.5
12.197277 -61.584557 -0.15492585 18.741936
12.388632 -62.596333 0.12667052 32
11.607383 -64.017998 0.36170465 32
12.864568 -51.515476 0.41902512 32.493977
12.879669 -52.521488 0.38435012 43.007069
12.799883 -53.565334 0.33489335 51.868626
12.610056 -61.957218 -0.25365266 13
12.744942 -62.835003 0.12934418 31.666666
12.98208 -63.239876 0.11030541 32
13.088864 -64.193939 0.045835689 32
13.188435 -65.415611 0.050321057 32
13.221622 -66.454536 0.075516477 32
13.240151 -67.355873 -0.01928018 32
13.24178 -68.483368 0.12512968 32
13.41678 -69.359009 -0.031497315 32
13.696939 -70.508316 0.17215545 32
21.11824 -55.252403 0.026453853 24.490566
21.252914 -56.264969 -0.035320729 23
21.045544 -57.274548 -0.045760706 23.902439
21.026182 -58.267933 -0.049498007 20.094595
21.051949 -59.236851 -0.0503373 16.080645
21.089085 -60.229691 -0.079293072 31.637932
21.16983 -61.205196 -0.098152891 32
21.145657 -62.341011 -0.25118661 32
21.152546 -63.287514 -0.26336378 32
21.214298 -64.17054 -0.27376977 32
21.325954 -65.250763 -0.28575408 32
21.25268 -66.091568 -0.29583538 32
21.410698 -67.249596 -0.077375457 32
21.307209 -68.070923 -0.31712711 32
21.312834 -69.276978 -0.32979918 32
21.352676 -70.141426 -0.33855337 32
21.340994 -71.080482 -0.34815651 32
21.376505 -72.214378 -0.3594079 32
21.374878 -73.187614 -0.36906463 32
21.398575 -74.199432 -0.3789295 32
21.452744 -75.179459 -0.38832343 31.5
21.860718 -51.622055 0.50839025 32
21.868767 -51.804722 0.42945582 32
21.887144 -53.285397 0.38160515 31.843283
21.966169 -54.270641 0.3224591 21.48538
22.000246 -55.322136 0.38720798 15.378151
22.030746 -56.228756 0.2489035 14.592592
22.230467 -57.22187 0.3557688 30.197916
22.090345 -58.245567 0.42104512 31.556818
22.280628 -59.358685 0.51604128 32
22.137724 -60.165756 0.44715756 32
22.165045 -60.906509 0.36841202 32
22.263411 -62.19593 0.40240413 32
22.222118 -63.098408 0.32658356 32
22.34709 -64.242393 0.38483703 32
22.220123 -65.083954 0.27453756 32
22.346909 -66.48703 0.14896972 32
22.222502 -67.204529 0.15871997 32
22.421932 -68.50943 0.18818693 32
22.260628 -69.272141 0.19973479 32
22.274221 -69.947456 0.21382864 32
22.375116 -71.129715 0.24068664 32
22.307005 -72.031525 0.25878572 32
22.447426 -73.252968 0.28813219 32
22.471079 -57.352875 0.35672987 32
10.825852 -53.414062 -0.38196409 23.736841
10.824026 -54.235603 -0.3209182 29.705128
10.872099 -55.272926 -0.34827513 36.137096
10.910335 -56.248806 -0.38430905 40.030487
10.919798 -57.237968 -0.40361619 41
10.935448 -58.239532 -0.4226501 39.388157
10.893512 -59.196461 -0.42185703 34.778847
10.922231 -60.214367 -0.41720015 28.647058
10.95374 -61.040073 -0.52850354 22.535715
12.11614 -53.745682 -0.33529294 38.445454
11.635301 -53.799992 -0.35461205 34.666668
11.493552 -55.042992 -0.50384009 42
11.915831 -59.332222 -0.60797131 45
11.699005 -60.678669 -0.35109127 32.5
11.851828 -61.076599 -0.3968482 30.166666
11.61993 -62.157566 -0.44006717 17.846153
10.968372 -63.31966 -0.45034677 32
11.081425 -64.679535 -0.80823648 32
12.903149 -52.443302 -0.32910892 30.916666
12.837834 -53.486767 -0.31410488 41.629032
12.628698 -54.667076 -0.57194209 50.916668
12.435154 -59.592537 -0.61181939 48.209301
12.838932 -60.300529 -0.56472576 45.18919
12.397554 -62.344055 -0.42081296 20.885714
12.762566 -63.335617 -0.48983416 23.384615
13.076677 -60.618172 -0.64292514 43.666668
12.952362 -63.88047 -0.4779385 32
13.062398 -64.405678 -0.49985412 32
13.071506 -65.39949 -0.54045033 32
13.085558 -66.354828 -0.57965183 32
13.113576 -67.393723 -0.62249351 32
13.124622 -68.314201 -0.66043258 32
13.234696 -69.266335 -0.70050639 32
13.230474 -70.098976 -0.73481059 32
13.401447 -70.206131 -0.74061137 32
21.079798 -55.205521 -0.3882862 20.75
21.057188 -57.303387 -0.51531923 24.555555
21.004505 -57.830986 -0.48518407 24.821428
21.022171 -59.217194 -0.43271393 20.384615
21.114525 -59.964249 -0.45830664 20.25
21.027378 -60.654922 -0.4785015 32
21.897223 -53.206097 -0.32451159 32
21.931707 -54.057251 -0.33903727 32
21.985443 -55.0257 -0.35775614 32
22.022087 -56.107498 -0.38058391 32
22.074533 -57.030918 -0.40305483 30.200001
21.835342 -58.196865 -0.42599693 28.75
21.732512 -59.004261 -0.44575033 26.4375
21.515741 -60.178696 -0.47571662 29.384615
21.261862 -60.887856 -0.49230078 32
21.29744 -61.987625 -0.53097153 32
21.259766 -62.963638 -0.56495047 32
21.324665 -63.946991 -0.60259604 32
21.484762 -65.065979 -0.64806259 32
21.487614 -66.041725 -0.68537915 32
21.399736 -66.996147 -0.72048485 32
21.431957 -68.254623 -0.77037668 32
21.362743 -68.931068 -0.79578167 32
21.343311 -69.949486 -0.83588648 32
22.199326 -59.359222 -0.46883225 32
21.695276 -65.977242 -0.68715942 32
21.693954 -66.71109 -0.71533328 32
21.567772 -68.10524 -0.76710814 32
21.427944 -69.827011 -0.83254147 32
21.42223 -71.380692 -0.89450073 32
21.420815 -72.299843 -0.93140161 32
21.423164 -73.01696 -0.96034765 32
21.447025 -74.392563 -1.0163385 32
10.603912 -53.242214 0.55663586 19.714285
10.755455 -53.389008 0.29363215 22.616438
10.799583 -54.301968 0.40057826 29.388186
10.827728 -55.258503 0.4052555 35.017494
10.915483 -56.266293 0.34360862 39.644444
10.936714 -57.263142 0.31405449 40.859222
10.951735 -58.24482 0.30030245 39.205196
10.886269 -59.247673 0.31528091 34.061161
10.91706 -60.207851 0.22104073 28.43721
10.90195 -61.216595 0.11925229 20.466667
10.859082 -62.093784 0.32528585 18.682926
10.849038 -63.090927 0.40029991 32
12.133085 -53.770008 0.43154114 38.2397
11.687387 -53.820175 0.25941235 35
11.886979 -60.753185 -0.17754069 33.42857
11.844323 -61.256767 -0.081322312 28.217392
11.217176 -62.467159 0.098099947 26.6
10.985416 -63.507511 0.46928418 32
11.037083 -64.213211 0.4456265 32
12.872443 -52.444271 0.42934787 30.232876
12.831402 -53.514896 0.40054297 41.302753
12.167833 -61.49007 -0.079620495 28.382353
12.555275 -62.627338 0.17260072 18.544041
12.767256 -63.448219 0.14626932 24.727272
12.806295 -63.932625 0.21424562 32
12.899814 -62.889099 -0.21766266 18
12.974095 -63.500637 0.13791001 23.692308
13.091475 -64.36409 0.18153697 32
13.132471 -65.444351 0.072551459 32
13.161342 -66.461166 0.10700411 32
13.19042 -67.415825 0.11475682 32
13.202839 -68.21019 0.086006582 32
13.253454 -69.36161 -0.028583199 32
13.494471 -69.622864 0.16836089 32
13.586355 -70.324722 0.18629482 32
13.305174 -76.773499 -0.31979188 32
21.10043 -55.217506 0.0080425441 20.583334
21.273726 -55.637066 0.07734102 19.888889
21.038879 -57.179626 -0.0424954 25.053572
21.003391 -57.994808 -0.062671795 24.583334
21.028587 -58.978504 -0.080236942 21.302631
21.04204 -59.953419 -0.10101829 16.442623
21.036636 -60.818501 -0.082748055 22.947369
21.879978 -53.184715 0.3965289 32
21.936848 -54.082226 0.33681691 32
22.018761 -55.116577 0.43614715 31.44898
22.010139 -56.115589 0.22807661 20.916666
22.115425 -57.284027 0.31261587 24.294117
22.058331 -58.109261 0.36606985 26.620001
21.98185 -58.777767 0.33211005 29.347826
21.875641 -59.917248 0.24804413 27.363636
21.148119 -61.091652 -0.10802227 32
21.134418 -61.962906 -0.12071103 32
21.247271 -62.889732 -0.18040493 32
21.208754 -64.050217 -0.28527609 32
21.282177 -65.081795 -0.2959215 32
21.237206 -66.035255 -0.30514956 32
21.232054 -66.973267 -0.31380653 32
21.26969 -67.883461 -0.32195449 32
21.337225 -69.93914 -0.33949119 32
22.395576 -56.586948 -0.15434349 32
22.399609 -57.024597 0.42295533 32
22.416866 -59.284592 0.55040288 32
22.171585 -60.191048 0.4297654 32
22.156649 -60.826843 0.44014895 32
22.237238 -62.119331 0.33805096 32
22.214581 -62.956787 0.36181813 32
22.314508 -64.265526 0.28974199 32
22.249462 -65.071991 0.30667365 32
22.403088 -66.294739 0.18551818 32
22.169479 -67.191811 0.10926637 32
22.35376 -68.166504 0.13178703 32
22.284035 -69.114304 0.15034348 32
22.293831 -69.837593 0.16611135 32
21.821499 -71.087891 -0.078694165 32
21.420616 -71.909637 -0.3556174 32
21.424768 -72.99794 -0.36410967 32
21.447947 -74.034668 -0.37214878 32
21.451298 -74.737274 -0.37747946 32
21.556297 -75.952499 -0.38710275 32
22.578224 -68.599297 0.14438075 32
22.454529 -71.034126 0.19507426 32
22.329414 -71.948349 0.21450654 32
22.453966 -73.237732 0.24639046 32
22.363869 -74.207901 0.26893824 32
10.796654 -53.400322 -0.39835542 21.636364
10.815006 -54.326069 -0.37116659 23.24
10.84757 -55.343021 -0.38966849 31.191011
10.899755 -56.27581 -0.42423624 37.183006
10.914381 -57.287975 -0.43238938 41.114941
10.916828 -58.291897 -0.45114627 42.017342
10.878849 -59.227554 -0.43242306 40.169231
10.881729 -60.307896 -0.50856054 35.445312
10.8909 -61.107063 -0.61418307 30.4
12.211916 -53.822216 -0.40212893 30.406593
11.820322 -53.985943 -0.39977241 29
11.879183 -55.04216 -0.55986679 39.040001
11.537749 -59.324699 -0.62501281 47.677418
11.66538 -60.75856 -0.35226467 41.090908
11.728522 -61.007938 -0.41828823 39.720001
11.454027 -62.270119 -0.45212716 26.428572
10.918974 -62.936825 -0.76653671 15.333333
11.018692 -64.385071 -0.73973584 32
12.841173 -53.598598 -0.34696901 32.039474
12.94551 -54.03817 -0.55759251 37.400002
12.749617 -60.690037 -0.50295782 51.68
11.981465 -61.209431 -0.36439002 40.5
12.335543 -62.444672 -0.42409748 31.361702
12.702425 -63.348972 -0.4711135 24
12.660042 -63.971386 -0.63221192 16.666666
13.035496 -60.94315 -0.60015047 52
13.071499 -61.403877 -0.64093781 47.142857
12.882549 -63.760521 -0.45094365 20.25
12.988848 -64.42942 -0.49563631 26.454546
13.010791 -65.361252 -0.51001894 32
13.017681 -66.412132 -0.54912591 32
13.038313 -67.375092 -0.58514428 32
13.04226 -68.306908 -0.62005168 32
13.135981 -69.312782 -0.65813959 32
13.322733 -69.623581 -0.67053068 32
13.34928 -70.159431 -0.69081718 32
21.095884 -55.31086 -0.36704329 19.555555
21.100653 -57.308323 -0.45471162 22.388889
21.068714 -58.040016 -0.48049772 23.4
21.077305 -59.234493 -0.48810735 22.09091
21.017933 -60.073944 -0.45157516 20.09091
21.008986 -60.827076 -0.45145309 17
21.94408 -54.257015 -0.34797156 32
21.93602 -55.400017 -0.36226451 32
22.010559 -56.128555 -0.37468725 32
21.911892 -57.121033 -0.43681127 27.777779
21.497778 -58.342457 -0.51404119 22.705883
21.387224 -59.116989 -0.52872276 21.131578
21.24538 -60.166645 -0.57688642 19.069767
21.19482 -60.984955 -0.56300461 21.833334
21.187155 -62.097717 -0.49229303 32
21.130754 -63.102871 -0.52216733 32
21.284761 -64.267021 -0.56276351 32
21.207251 -64.952049 -0.58403832 32
21.215048 -65.867416 -0.61520898 32
21.32196 -67.14183 -0.66110432 32
21.325298 -68.379654 -0.70469892 32
21.344696 -68.922684 -0.72429764 32
22.084349 -60.951538 -0.4794324 32
22.104866 -62.067871 -0.51126701 32
22.090126 -62.965134 -0.53768909 32
21.776686 -65.665314 -0.6184237 32
21.79497 -66.094856 -0.63325381 32
21.438852 -68.200043 -0.70015192 32
21.456097 -69.620796 -0.75092244 32
21.382915 -71.180115 -0.80599689 32
21.462406 -72.525558 -0.85600567 32
10.610235 -53.282051 0.57668912 20.857143
10.766689 -53.324013 0.14353392 17.960785
10.793999 -54.32748 0.37533769 22.622952
10.810867 -55.303146 0.34842041 30.084337
10.903917 -56.304764 0.33396527 36.897221
10.92634 -57.312904 0.27523956 40.879147
10.924386 -58.305344 0.24927104 41.917061
10.861107 -59.29343 0.25862411 39.321243
10.878283 -60.252338 0.23878765 35.381248
10.866467 -61.243668 0.097454727 29.187969
10.813404 -62.220726 0.36110082 20.807692
10.797615 -63.177578 0.32787082 18.950001
12.238287 -53.848251 0.3797709 30.313953
11.752227 -53.884407 0.32483795 27.142857
11.839709 -60.829014 -0.20189527 42.200001
11.814287 -61.243019 -0.12634695 38.48148
11.103304 -62.404961 0.075638145 21.952381
10.92199 -63.492222 0.39365497 26.608696
10.958413 -64.228233 0.49067113 32
12.816379 -53.598713 0.38206527 31.420815
12.126754 -61.577301 -0.086929351 38.325001
12.470634 -62.66642 0.1113171 29.809322
12.687868 -63.08725 0.15456095 26.666666
12.707666 -63.987125 0.1236096 16.692308
12.848506 -62.953171 -0.23407456 29
12.922505 -63.411228 0.16420814 24.213593
12.989511 -64.296417 0.14652976 20.049999
13.058384 -65.483986 0.163176 32
13.076958 -66.457047 0.04972735 32
13.107344 -67.475227 0.080453247 32
13.121632 -68.419266 0.10933474 32
13.145604 -69.307106 0.10258743 32
13.399015 -69.516426 0.097822368 32
13.58455 -70.387215 0.16238716 32
13.124128 -76.825981 -0.28475285 32
21.141624 -55.332962 0.018133819 16.263159
21.064964 -55.680885 0.095876843 17.333334
21.025213 -57.288704 -0.028519258 23.272728
21.022079 -58.115887 -0.053878352 24.023809
21.011639 -59.121891 -0.069160953 23.166666
21.024998 -60.008648 -0.06973964 20.391304
21.023914 -60.806107 -0.132992 16.857143
21.918926 -54.17347 0.3841348 32
21.95084 -55.262089 0.41823348 32
21.982561 -56.199669 0.27855787 31.767443
22.202797 -57.258018 0.46579257 31.428572
22.041246 -58.21674 0.37877771 29.51
21.890501 -58.927814 0.27094093 28.958334
21.593159 -60.130138 0.08381471 23.132076
21.126934 -61.141209 -0.089346439 16.10606
21.194309 -62.018166 -0.13620684 32
21.202799 -63.107689 -0.25275201 32
21.159872 -64.108505 -0.26167345 32
21.25832 -65.131439 -0.2689414 32
21.244549 -66.173279 -0.27608776 32
21.239006 -67.11203 -0.28190374 32
21.282595 -68.179237 -0.28784773 32
21.308115 -69.190224 -0.29315007 32
21.309422 -69.709953 -0.29577479 32
22.367992 -57.289925 0.460403 32
22.377842 -59.323013 0.48714009 32
22.131325 -60.331196 0.42368236 32
22.193455 -60.998631 0.46114132 32
22.221226 -62.197933 0.44619462 32
22.194742 -63.075615 0.22539961 32
22.321693 -64.310982 0.2992762 32
22.249725 -65.188171 0.31474802 32
22.425875 -66.416428 0.38720158 32
22.180025 -67.217094 0.30612686 32
22.299911 -68.299812 0.14605215 32
22.298792 -69.220589 0.16730744 32
21.535004 -70.140274 -0.20222881 32
21.385075 -71.290337 -0.3032468 32
21.422804 -72.20623 -0.30736649 32
21.491583 -73.345078 -0.31232297 32
21.535496 -74.313332 -0.31641936 32
21.591988 -74.752426 -0.31826502 32
22.570225 -68.676117 0.16068396 32
22.308971 -70.042526 0.18736216 32
22.43895 -71.160118 0.21790022 32
22.364372 -72.142738 0.24190786 32
22.49197 -73.306099 0.27489981 32
22.405396 -74.304642 0.30070201 32
22.440338 -75.358154 0.33034232 32
22.005571 -76.156998 -0.32428932 32
22.653315 -78.689056 -0.33503711 31
10.828917 -54.291283 -0.40835896 21.575001
10.856205 -55.286655 -0.3906408 23.965517
10.929621 -56.273094 -0.41438079 32.234783
10.95118 -57.253654 -0.42056274 38.470966
10.962502 -58.256916 -0.43225712 42.473682
10.92112 -59.253098 -0.42295015 43.125
10.931773 -60.21574 -0.47706956 41.636364
10.941875 -60.964893 -0.54110253 38.777779
12.042986 -53.890205 -0.33605197 19.881355
11.500272 -59.326595 -0.62134886 50.354839
11.442472 -61.228378 -0.45612925 42.909092
11.170675 -62.340614 -0.55023777 32.360657
11.252058 -63.040817 -0.75415289 27.136364
11.026459 -63.881104 -0.65447342 18
12.154127 -59.52594 -0.6810714 58
12.032423 -61.20311 -0.33637452 49.666668
12.316264 -62.428253 -0.42812261 41.982758
12.369788 -63.147022 -0.56052876 35.200001
12.652869 -64.010391 -0.54233253 28
13.104245 -61.885723 -0.58824217 53.333332
13.14613 -62.424068 -0.63690984 48.090908
12.872162 -63.138367 -0.39417857 38.888889
12.966824 -64.113159 -0.52339232 28.479166
13.100387 -65.468544 -0.47953394 25.333334
13.115584 -66.477928 -0.51760423 32
13.134675 -67.502007 -0.55642045 32
13.154467 -68.412506 -0.59104538 32
13.178157 -69.145592 -0.61898053 32
13.356842 -69.539185 -0.63391852 32
13.474723 -70.316574 -0.6636399 32
21.101446 -55.370407 -0.31702724 32
21.091099 -57.388542 -0.3842603 19.285715
21.085846 -58.222912 -0.38637912 21.352942
21.087774 -59.248745 -0.3915863 22.555555
21.044956 -60.126328 -0.37567645 21.875
21.027916 -60.911041 -0.39484608 20
21.964291 -55.46426 -0.31087556 32
22.079145 -56.355225 -0.35309911 32
21.610229 -57.421284 -0.44567174 23.5
21.554249 -58.58392 -0.41706991 20.6
21.362364 -59.189304 -0.4949488 19.791666
21.298912 -60.259983 -0.51796019 19.809525
21.204031 -61.193996 -0.54689777 19.25532
21.182714 -62.168167 -0.44975889 27.615385
21.180376 -63.173088 -0.46237701 32
21.298595 -64.260178 -0.4985778 32
21.310017 -65.099648 -0.52620792 32
21.383749 -66.158295 -0.56294143 32
21.305616 -67.137886 -0.59565401 32
22.156811 -62.032906 -0.44653204 32
22.131128 -64.310806 -0.51372731 32
21.980492 -65.078644 -0.53586292 32
22.221504 -66.512253 -0.58698022 32
21.50935 -67.056816 -0.59555084 32
21.328325 -68.533127 -0.64516795 32
21.463297 -69.332146 -0.67538249 32
21.368374 -70.030983 -0.69947469 32
21.462666 -72.213829 -0.78020179 32
21.396301 -72.951202 -0.80671477 32
21.493347 -74.438194 -0.86277294 32
21.491339 -75.284698 -0.89427876 32
10.862401 -54.300003 0.34839579 17.174999
10.824291 -55.242805 0.37868556 22.86631
10.926729 -56.304043 0.35142002 31.99262
10.959127 -57.272697 0.31123188 38.237431
10.966743 -58.295364 0.29085246 42.2173
10.902897 -59.267651 0.29892382 42.369141
10.92226 -60.231476 0.23857346 41.159687
10.864695 -61.150349 0.21335593 36.775509
10.820695 -62.062031 0.39613619 30.428572
12.054396 -53.906559 0.42085764 19.612717
11.388679 -60.791195 -0.032553807 44.666668
11.215435 -61.215248 0.00067149103 40.552238
11.067631 -62.279633 0.14591783 31.653465
10.990621 -63.50016 0.45907578 20.472221
11.010195 -64.052734 0.32129857 15.694445
12.16493 -61.457802 -0.11861899 48.987656
12.48106 -62.616554 0.1042954 41.232788
12.203666 -62.933281 0.23367962 36.142857
12.825261 -62.944622 0.050204873 40.599998
12.927799 -63.147743 0.16880307 38.856251
13.020335 -64.247551 0.15870467 27.019608
13.140491 -65.462006 0.1102308 20.828125
13.163282 -66.483131 0.14578554 32
13.190245 -67.427345 0.099721402 32
13.225142 -68.369751 0.069293886 32
13.178273 -69.275162 0.096179456 32
13.321051 -68.951286 0.08518073 32
13.477888 -69.412201 0.075193077 32
13.665259 -70.30983 0.51695299 32
13.283016 -76.811958 -0.29250669 32
21.069757 -55.390636 -0.049736917 29.666666
21.321924 -55.841667 -0.060108691 32
21.020964 -57.407944 0.018813282 19.979591
21.021397 -58.237175 0.015586853 22.16
21.038536 -59.202847 -0.011679143 22.873417
21.042356 -60.043591 -0.04056339 22.023256
21.011 -60.850182 -0.18046769 20.5
22.037804 -55.325527 0.49317732 32
22.076748 -56.291073 0.39826396 32
22.190411 -57.398491 0.56917799 31.155556
22.10009 -58.313492 0.48679861 31.872341
21.888737 -59.158302 0.29844239 28
21.297958 -60.313259 -0.01747793 20.571428
21.126488 -61.22213 -0.046170712 17.448717
21.164286 -62.166435 -0.074645191 21.142857
21.254942 -63.12719 -0.095735162 32
21.204107 -64.156914 -0.20416321 32
21.296431 -65.215683 -0.2287142 32
21.244963 -66.231987 -0.23759845 32
21.251783 -67.169914 -0.24455057 32
21.252184 -68.131447 -0.25112933 32
21.252989 -69.016556 -0.25678995 32
22.394436 -57.362343 0.66832709 32
22.4 -59.357815 0.50697494 32
22.149734 -60.336506 0.46458212 32
22.285162 -61.25066 0.52915621 32
22.229877 -62.333176 0.48026112 32
22.20919 -63.110115 0.48928931 32
22.283665 -64.461464 0.28738764 32
22.245718 -65.251251 0.29451326 32
22.346392 -66.550179 0.36534551 32
22.215729 -67.401321 0.39478722 32
21.786053 -68.269333 -0.05133228 32
21.461369 -69.280914 -0.19631757 32
21.32424 -70.15033 -0.26312417 32
21.40765 -72.096725 -0.27345774 32
21.41 -72.989677 -0.27810895 32
21.460302 -75.680023 -0.29110715 32
21.411478 -76.215919 -0.29378834 32
21.482485 -76.902649 -0.29672247 32
22.561064 -66.276421 0.46212557 32
22.4678 -68.761673 0.1752165 32
22.286285 -69.415848 0.18409619 32
22.292879 -70.089096 0.19930565 32
22.415686 -71.251831 0.2297028 32
22.321236 -72.185448 0.25014281 32
22.469063 -73.389931 0.28383753 32
22.364061 -74.480637 0.3099778 32
22.376057 -75.432007 0.33551899 32
22.39864 -76.325943 0.3601037 32
21.522989 -77.540054 -0.29950044 32
21.555353 -78.442238 -0.30346334 32
10.924378 -55.929379 -0.38584107 19.786884
10.965262 -56.889202 -0.40652597 27.536585
10.982345 -57.890522 -0.43017146 35.169231
10.965724 -58.83181 -0.45273846 40.261436
10.954435 -59.883797 -0.49279517 43.544445
10.969166 -60.631325 -0.51043355 44.037498
11.001591 -61.973164 -0.67197901 41.266056
11.013458 -62.669422 -0.75345087 37.977779
11.01225 -63.624733 -0.82769525 31.416666
11.231725 -59.264713 -0.6929754 45
11.834464 -61.109177 -0.46353096 54.490566
11.674527 -61.90992 -0.52842414 49.563637
11.54613 -62.605801 -0.70906937 44.066666
11.029822 -63.855556 -0.80439782 29.882353
12.108389 -61.16391 -0.3531155 58
12.354061 -62.22834 -0.45331985 55.464287
12.647801 -62.935001 -0.47597766 52.650002
12.78379 -64.036613 -0.53996772 43.226414
13.171555 -63.241348 -0.65880036 54.166668
13.126749 -64.095367 -0.56687891 44.804878
13.15043 -64.858696 -0.59702814 36.394737
13.14583 -65.93959 -0.54696196 23.818182
13.162054 -66.884766 -0.59150517 25.142857
13.184283 -67.81105 -0.63536119 32
13.259271 -69.173462 -0.69999266 32
13.421248 -70.024261 -0.74013484 32
21.062344 -57.433495 -0.32942933 32
21.054329 -58.174603 -0.35922375 16.724138
21.108578 -59.366436 -0.35176444 20.272728
21.08584 -60.183708 -0.37482387 21.727272
21.079306 -61.086266 -0.52812028 21.6
21.067947 -61.998917 -0.43319002 19.75
21.995401 -56.140663 -0.3829062 32
21.458832 -57.393841 -0.50124419 32
21.500301 -58.21418 -0.50795174 27.058823
21.361582 -59.354088 -0.48921996 20.5
21.372047 -60.230667 -0.49920008 20.761906
21.348049 -61.032578 -0.47155195 21.625
21.410273 -62.180138 -0.44545484 24.647058
21.288746 -63.164612 -0.47924924 26
21.60401 -64.149094 -0.52209085 32
21.523371 -65.205376 -0.56333518 32
21.325438 -66.069099 -0.5965836 32
22.202618 -60.021763 -0.38961247 32
22.160454 -61.634121 -0.43954393 32
22.193884 -62.196678 -0.45937362 32
22.117523 -63.287323 -0.49732721 32
10.903591 -55.930676 0.38015178 18.222221
10.955648 -56.90118 0.33199522 27.078049
10.982958 -57.908852 0.33370999 34.766449
10.951866 -58.880657 0.2575011 39.92564
10.930163 -59.900372 0.25242659 42.810001
10.933796 -60.787052 0.18467751 43.366493
10.919975 -61.896828 0.18767279 40.542858
10.9217 -62.789658 0.15286991 36.261906
10.93149 -63.696262 0.28352162 30
11.893479 -61.13641 -0.19428915 55.237289
11.921957 -61.945366 -0.16888472 52.414635
11.283466 -62.986774 0.086373687 38.81818
11.048754 -63.76527 0.10319275 30.835821
12.136269 -61.270615 -0.13175005 57.727272
12.320962 -62.046234 -0.10855788 56.151684
12.755686 -63.046001 0.13103324 52.365131
12.871461 -63.97345 0.13415271 44.187817
13.037872 -63.394463 0.091336638 51.400002
13.113644 -64.17675 0.099839061 43.615383
13.148742 -64.897118 0.086020976 35.826923
13.182179 -65.915237 0.059374124 24.252428
13.202326 -66.922455 0.015329599 21.68421
13.235151 -67.918335 0.029822618 32
13.326258 -69.069069 -0.046281964 32
13.588943 -69.781647 -0.045561135 32
13.728462 -70.638771 0.2319493 32
13.317111 -76.913589 -0.49357027 32
13.267402 -79.652412 -0.52983189 32
13.940121 -69.908928 -0.40173835 32
13.849828 -70.647827 0.3036947 32
13.579213 -79.620102 -0.52993512 32
21.011436 -57.459736 -0.071219981 13.7
21.079704 -58.322495 -0.0011710227 17.086956
21.080469 -59.248051 0.016796976 20.181818
21.065098 -60.116158 -0.014697224 21.830189
21.062649 -61.205982 -0.063963681 21.454546
21.067909 -61.950153 -0.10231781 19.692308
22.03624 -56.247074 0.37514886 32
22.08219 -57.243637 0.50594521 32
21.991268 -58.215889 0.48545071 29.255102
21.925028 -58.952023 0.36178049 28.484848
21.402187 -60.288429 -0.03476654 20.210526
21.224655 -61.171608 -0.065952867 20.200001
21.159214 -62.203465 -0.087584674 18.279411
21.180937 -63.182705 -0.10980278 17.473684
21.250015 -64.178398 -0.11363697 32
21.310246 -65.175049 -0.096302196 32
21.294168 -66.12558 -0.1196766 32
21.327559 -67.163628 -0.096547231 32
21.355675 -68.284187 -0.13402477 32
21.323059 -69.269829 -0.13702774 32
21.352711 -70.099846 -0.1187821 32
21.383911 -71.243843 -0.069737345 32
21.508766 -72.27433 -0.095066518 32
21.503675 -72.822792 -0.41545507 32
22.3475 -56.783211 0.48822662 32
22.412212 -59.375195 0.53888798 32
22.176319 -60.275234 0.47388902 32
22.282379 -61.175747 0.46197596 32
22.269361 -62.274853 0.45876428 32
22.239553 -63.161411 0.43976268 32
22.322765 -64.33271 0.40332034 32
22.249311 -65.203339 0.28588834 32
22.388021 -66.534706 0.32193038 32
22.276054 -67.240723 0.26748487 32
22.360849 -68.170143 0.18427548 32
22.375872 -68.967957 0.39015052 32
22.43462 -72.339127 -0.40011418 32
21.74498 -72.847145 0.07546106 32
22.375957 -74.221344 0.11231771 32
22.428684 -75.182266 0.12893781 32
22.269997 -76.288956 0.14394909 32
22.405991 -77.200478 0.16238526 32
22.427753 -77.811455 0.17350313 32
10.971968 -57.669201 -0.51477718 21.181818
10.975504 -58.687572 -0.46207166 29.848484
10.957605 -59.62162 -0.47131571 36.135418
10.991498 -60.601273 -0.65113485 41.433628
11.006226 -61.717529 -0.63763475 44.366459
11.02727 -62.691288 -0.7550559 43.826923
11.038881 -63.3204 -0.74245238 42.299999
11.024261 -57.66243 -0.40810221 21.527779
11.02308 -58.337711 -0.39868104 27.473684
11.552267 -59.551228 -0.6371671 42.166668
11.801453 -60.950031 -0.43532726 52.73077
11.738826 -61.406593 -0.49810937 53.172413
11.626983 -62.425201 -0.73018175 51.75
11.618649 -64.041016 -0.76059777 45.5
12.656967 -59.863033 -0.77789992 55
12.628421 -64.01609 -0.57682997 56
13.06151 -64.51033 -0.57794535 55.42857
13.152187 -65.528084 -0.59327149 45.716419
13.164814 -66.5121 -0.66862774 34.799999
13.16841 -67.463493 -0.62431467 23.727272
13.200753 -68.421669 -0.65373909 26.5
13.274599 -69.407402 -0.75879812 32
13.085711 -76.874519 -1.0768198 32
13.474504 -79.352951 -1.1976111 32
13.505511 -81.491562 -1.3046801 32
13.568702 -69.699959 -0.85159516 32
20.981535 -57.433479 -0.25208634 32
21.007334 -58.375149 -0.27375868 32
21.020643 -59.513901 -0.30206972 16.666666
21.018894 -60.333855 -0.46355021 20
21.092407 -60.956356 -0.38511878 21
21.111807 -62.350521 -0.43607712 21.461538
21.119677 -63.296177 -0.42059726 19.666666
21.290058 -67.552834 -0.59682882 32
21.325525 -68.583702 -0.64339197 32
21.328209 -68.974548 -0.66127598 32
21.169151 -57.52486 -0.32988089 32
21.316456 -58.286957 -0.41104144 32
21.276129 -59.263329 -0.40912896 28.139534
21.308517 -60.465248 -0.41347972 18.799999
21.310513 -61.281326 -0.47198611 21.218182
21.273243 -62.28178 -0.51761639 20.408163
21.53673 -63.254498 -0.42346275 23.444445
21.711411 -64.378532 -0.46722043 27.75
21.878857 -65.221291 -0.5021084 32
21.772181 -66.306557 -0.54611468 32
21.471127 -67.274513 -0.58564925 32
21.411951 -68.253716 -0.62889612 32
22.200563 -56.761524 -0.55286431 32
22.077217 -58.956287 -0.29719704 32
22.194069 -59.970627 -0.32552719 32
22.144627 -61.145161 -0.35938621 32
22.306953 -64.190552 -0.46570867 32
